-13.4946 40.8394 84.0007 -0.610468 -0.0746388 0.788404
-12.7227 40.4451 84.5439 -0.599755 -0.07873 0.796301
-11.883 40.4277 85.1633 -0.547094 -0.0863884 0.830781
-10.3715 40.3783 86.0424 -0.47996 -0.0848376 0.872528
-9.36456 40.3301 86.539 -0.442346 -0.0565324 0.895061
-8.34132 40.2735 87.0341 -0.387119 -0.0604832 0.919311
-7.29887 40.2658 87.428 -0.34705 -0.0671506 0.93532
-5.76709 40.2108 87.9285 -0.276554 -0.0832045 0.957389
-4.25531 40.1064 88.3622 -0.261964 -0.118097 0.957109
-3.17206 40.038 88.6161 -0.227829 -0.148075 0.96234
-2.16877 40.03 88.7301 -0.0758934 -0.0905797 0.992805
-0.922054 40.1053 88.8121 -0.0496696 -0.0906216 0.994549
0.267229 40.2514 88.8512 0.00310857 -0.0906675 0.995874
1.65126 40.3433 88.8537 0.0176813 -0.0729452 0.996953
3.19289 40.3652 88.5916 0.173349 -0.0537498 0.983392
4.45016 40.3381 88.3053 0.238269 -0.0730098 0.968451
5.98136 40.3515 87.892 0.290152 -0.0870943 0.953009
7.1899 40.438 87.5306 0.325136 -0.0551208 0.942858
8.2029 40.5498 87.0644 0.433598 -0.0705899 0.898337
9.4636 40.7157 86.4358 0.485785 -0.0849593 0.869939
10.4656 40.875 85.8946 0.482964 -0.0840391 0.871598
11.4888 41.0999 85.312 0.560515 -0.0335949 0.827461
12.9412 41.329 84.3488 0.575319 -0.00214145 0.817091
13.8099 41.3681 83.6948 0.601204 0.017975 0.798893
14.6739 41.4528 83.0122 0.622351 0.00665356 0.78271
14.9715 42.4168 82.7709 0.623823 -0.0259826 0.780514
14.4754 43.1737 83.2256 0.623433 -0.0550298 0.779937
13.6795 43.926 83.9146 0.621653 -0.0435412 0.781994
12.8605 44.5283 84.5114 0.56189 -0.0152139 0.827072
11.7815 45.1721 85.2536 0.559455 -0.013478 0.828751
10.9897 45.4988 85.7869 0.525982 -0.00758372 0.849829
9.64712 45.5738 86.5593 0.488737 -0.0040555 0.872342
8.60567 45.5201 87.1041 0.447101 0.0250858 0.894125
7.64115 45.4676 87.5389 0.376556 0.00796144 0.926359
6.48915 45.4373 88.0044 0.320778 -0.00613951 0.945572
5.48008 45.3882 88.2876 0.270562 -0.0214522 0.962463
4.02692 45.4146 88.644 0.209604 -0.0182216 0.977598
2.99274 45.4759 88.8603 0.187059 0.00767444 0.982229
1.96648 45.4671 89.0432 0.138307 -0.0251042 0.98907
0.934943 45.4534 89.1082 0.0340936 -0.0279049 0.999026
-0.0755845 45.4266 89.138 0.0370052 -0.0232974 0.999003
-1.09465 45.394 89.121 -0.0336659 0.0112978 0.999361
-2.14504 45.3793 89.0793 -0.053784 0.0105318 0.998379
-3.42973 45.3984 88.8414 -0.18657 -0.0856774 0.978699
-4.6423 45.48 88.563 -0.273086 -0.0572766 0.960283
-6.29466 45.5258 88.0924 -0.278545 -0.0506512 0.959074
-7.33117 45.547 87.7758 -0.344868 -0.0364942 0.936175
-8.53221 45.5895 87.2426 -0.425575 -0.0349887 0.904018
-9.66686 45.5926 86.6654 -0.462149 -0.0389146 0.885948
-10.9617 45.3664 85.9703 -0.500741 -0.0399201 0.862878
-11.8308 44.9569 85.3781 -0.557014 -0.03624 0.829712
-12.3534 44.4385 85.0043 -0.557276 -0.0364157 0.829528
-12.7455 45.0852 84.7675 -0.571726 -0.0390164 0.819354
-13.3592 44.2264 84.279 -0.585164 -0.0424663 0.809802
-13.874 43.2123 83.8601 -0.617474 -0.0439004 0.784103
-14.1093 42.1746 83.5755 -0.652276 -0.0597419 0.755619
-14.306 40.9865 83.3646 -0.642932 -0.020751 0.765642
-14.3646 39.9856 83.2291 -0.621359 -0.0711859 0.780284
-13.6414 39.7182 83.7797 -0.610548 -0.0761176 0.788197
-12.4263 39.6898 84.6925 -0.597921 -0.0874555 0.79672
-11.2012 39.6667 85.4729 -0.503938 -0.0973945 0.858231
-9.65956 39.564 86.3448 -0.463788 -0.080295 0.881621
-8.10849 39.5001 87.0793 -0.418188 -0.0745569 0.905295
-7.00367 39.5033 87.4932 -0.315051 -0.0780141 0.945066
-5.93626 39.4734 87.8077 -0.280954 -0.101408 0.954348
-4.85738 39.4039 88.1124 -0.281199 -0.0922035 0.955156
-3.7306 39.3226 88.3809 -0.223267 -0.0583663 0.973008
-2.62909 39.2697 88.623 -0.168845 -0.0871001 0.980067
-1.54579 39.2965 88.6955 -0.0642889 -0.0719854 0.995326
-0.489833 39.3895 88.7716 -0.0492796 -0.0757507 0.995752
0.523293 39.4977 88.7941 -0.00842301 -0.0581902 0.99827
2.24521 39.5998 88.7045 0.138717 -0.0929997 0.985955
3.34984 39.5978 88.5172 0.205485 -0.0697714 0.975686
4.43301 39.5828 88.2524 0.244342 -0.093445 0.964942
5.40398 39.5596 87.9966 0.270761 -0.0988007 0.95725
6.58082 39.6267 87.6453 0.290036 -0.0828739 0.95342
7.81158 39.7417 87.1898 0.411833 -0.0940838 0.905791
8.81774 39.8632 86.7135 0.45994 -0.0782798 0.883976
10.0825 40.0528 86.0251 0.485184 -0.0865412 0.870116
10.9739 40.2178 85.5333 0.499074 -0.0940872 0.861436
12.0045 40.4481 84.9301 0.546888 -0.0378044 0.836169
13.2712 40.6033 84.1167 0.574186 0.000670772 0.8179
14.2878 40.6086 83.3264 0.622164 0.00643531 0.78286
15.1952 40.6946 82.5993 0.631066 -0.0215994 0.774933
15.8349 41.706 82.0685 0.655344 -0.0169477 0.75514
15.3821 43.1776 82.4939 0.627703 -0.0559712 0.776438
14.6196 44.0455 83.1716 0.624371 -0.0431636 0.779848
13.8729 44.6869 83.7922 0.621744 -0.0313226 0.782593
13.1516 45.2348 84.3153 0.576036 -0.00414993 0.817414
12.3814 45.7492 84.8581 0.558304 -0.00929523 0.829573
11.2149 46.2176 85.6428 0.555557 -0.00375377 0.831469
10.2716 46.3236 86.2061 0.497424 -0.00713407 0.867478
8.93269 46.2804 86.9151 0.44184 0.00425088 0.896665
8.00644 46.2331 87.3837 0.413246 0.0171568 0.909514
6.44209 46.1954 88.0267 0.332752 -0.00843867 0.941366
5.2869 46.1491 88.3586 0.270188 -0.0196659 0.962606
3.88493 46.1967 88.6922 0.194873 -0.0212745 0.980531
2.83642 46.2254 88.8906 0.181129 -0.0121603 0.983352
1.84399 46.2217 89.0671 0.128445 0.0128 0.990316
0.453547 46.1947 89.1286 0.0262734 0.00214245 0.999652
-0.559477 46.165 89.1295 -0.0230291 0.0135986 0.999609
-1.62715 46.1417 89.0959 -0.0359164 0.00761909 0.999316
-2.83819 46.1457 89.0197 -0.128221 -0.0345519 0.987977
-3.89565 46.1628 88.8184 -0.231131 -0.0721502 0.969191
-5.21424 46.2649 88.4471 -0.28216 -0.0540157 0.957809
-6.26876 46.2795 88.1365 -0.281666 -0.0464365 0.958388
-7.5287 46.3026 87.7041 -0.3926 -0.0463457 0.918046
-8.79136 46.3172 87.1566 -0.423927 -0.0634474 0.90309
-10.2947 46.3122 86.39 -0.456823 -0.0667286 0.887044
-11.2665 46.1013 85.7828 -0.54819 -0.0124036 0.836231
-12.0402 45.7289 85.2582 -0.559054 -0.00919877 0.82908
-12.4763 45.3482 84.9601 -0.558957 -0.0218611 0.828811
-12.941 45.9111 84.6516 -0.587203 -0.0166412 0.808536
-13.5465 45.1539 84.1618 -0.618891 -0.012464 0.785337
-14.1469 44.1713 83.6718 -0.646308 -0.0130412 0.762259
-14.5324 43.198 83.2831 -0.675113 -0.0368629 0.736771
-14.817 41.5646 82.951 -0.64379 -0.0178645 0.764989
-14.9889 40.532 82.7782 -0.656865 -0.0204522 0.75351
-15.1847 39.0974 82.4884 -0.634049 -0.0724505 0.769814
-14.3198 38.8827 83.1628 -0.616565 -0.0805834 0.783169
-13.386 38.945 83.8857 -0.593074 -0.0925726 0.799794
-12.3677 38.9468 84.6467 -0.595918 -0.0960783 0.797277
-11.3702 38.9201 85.2859 -0.526142 -0.124183 0.841281
-10.0652 38.8372 86.0306 -0.484756 -0.104744 0.868355
-9.06706 38.7558 86.5566 -0.457986 -0.130014 0.879176
-7.87923 38.7431 87.1221 -0.38339 -0.06642 0.920395
-6.51737 38.7455 87.5582 -0.285179 -0.101461 0.953089
-5.43966 38.6948 87.8717 -0.285722 -0.0974822 0.953324
-4.33267 38.6104 88.2 -0.255746 -0.0721369 0.963344
-3.2186 38.5324 88.4515 -0.219969 -0.0559569 0.973891
-2.167 38.5121 88.5875 -0.121284 -0.122938 0.984972
-0.834454 38.5841 88.6931 -0.0518052 -0.077171 0.995534
0.259619 38.6995 88.7395 -0.0328902 -0.0808634 0.996182
1.31305 38.8108 88.7602 0.064193 -0.0767893 0.99218
2.68562 38.8409 88.5657 0.173587 -0.140119 0.973475
4.21281 38.8242 88.2175 0.248426 -0.117079 0.961548
5.73308 38.8082 87.8212 0.251772 -0.111414 0.961352
6.77901 38.8819 87.5197 0.340268 -0.101501 0.933097
7.74341 38.9683 87.1184 0.393102 -0.119664 0.91167
8.86749 39.1047 86.6119 0.485748 -0.0841861 0.870035
10.2531 39.3175 85.8595 0.485708 -0.0820706 0.87026
11.2682 39.521 85.3061 0.494218 -0.0696226 0.866545
12.2051 39.7002 84.7593 0.540289 -0.0661671 0.838869
13.197 39.8254 84.1317 0.542558 -0.0730405 0.83676
14.3051 39.8352 83.2807 0.634869 -0.048765 0.771078
15.6424 39.9753 82.1883 0.633645 -0.0477307 0.77215
16.3949 40.9135 81.5639 0.656348 -0.0187084 0.754225
16.4517 42.1076 81.5182 0.68836 0.0149735 0.725214
16.1157 43.2057 81.809 0.69127 0.0171453 0.722365
15.4719 44.1635 82.4147 0.698223 -0.00245074 0.715712
14.6941 44.9212 83.138 0.665023 0.00619686 0.746797
14.0504 45.4617 83.6806 0.600451 -0.0158919 0.798907
13.2115 46.1026 84.2808 0.576037 -0.0110707 0.817349
12.4389 46.6006 84.8265 0.563652 -0.00652869 0.825934
11.0888 47.0042 85.7292 0.553723 -0.00481976 0.832683
10.1745 47.0715 86.267 0.497135 -0.00569001 0.867655
9.27387 47.0429 86.7696 0.432525 -0.0216896 0.901361
8.09368 46.9836 87.3329 0.423105 -0.0118013 0.905905
7.03998 46.9427 87.7816 0.385117 -0.00468919 0.922856
5.7917 46.9137 88.2355 0.275981 -0.0263121 0.960737
4.72623 46.9153 88.5301 0.238283 -0.0197766 0.970461
3.72923 46.9613 88.727 0.187835 -6.92649e-05 0.982199
2.18574 46.9773 89.0118 0.133531 0.0162939 0.989751
0.994079 46.9601 89.1116 0.0528395 0.0196277 0.997951
-0.00606572 46.9326 89.1247 -0.0138987 0.0192822 0.999714
-1.04124 46.9057 89.1081 -0.024458 0.0131458 0.999573
-2.17401 46.8937 89.049 -0.0680894 0.023392 0.997404
-3.4982 46.9168 88.9569 -0.128406 -0.0289923 0.988116
-4.78313 47.0031 88.611 -0.285272 -0.043149 0.957475
-6.51122 47.0354 88.099 -0.283233 -0.0426705 0.958101
-7.6731 47.0416 87.7043 -0.394846 -0.0738572 0.915753
-8.74641 47.0423 87.2234 -0.446093 -0.0558723 0.89324
-9.78665 47.0766 86.7061 -0.450269 -0.061563 0.890746
-10.6592 47.0406 86.185 -0.542101 -0.0080061 0.840275
-11.4864 46.8498 85.6451 -0.552877 -0.00764824 0.83319
-12.5332 46.2561 84.9308 -0.560407 -0.00819517 0.828177
-13.1292 46.7296 84.5326 -0.587383 -0.0180854 0.808354
-13.7049 46.0612 84.0616 -0.61607 -0.0256783 0.78727
-14.2734 45.2345 83.5872 -0.641723 -0.0215003 0.765989
-14.8653 44.1633 83.0225 -0.679752 -0.0301467 0.732685
-15.1509 43.1671 82.7043 -0.692148 -0.036262 0.720843
-15.374 41.7726 82.4594 -0.672169 -0.0151075 0.740243
-15.6293 40.3122 82.1938 -0.671916 -0.0191688 0.740376
-15.8561 39.0597 81.9199 -0.642718 -0.0659924 0.763254
-16.5101 37.4319 81.1737 -0.675766 -0.0766034 0.733125
-16.4778 37.2759 81.1893 -0.670874 -0.0530355 0.739668
-15.8736 37.8236 81.8005 -0.657379 -0.0711334 0.749805
-14.8634 38.0032 82.6441 -0.61907 -0.0741295 0.781798
-13.8782 38.1595 83.436 -0.603411 -0.0848599 0.792729
-12.7519 38.1985 84.2694 -0.593056 -0.0927129 0.79979
-11.7292 38.1894 84.9535 -0.526264 -0.12402 0.841228
-10.6703 38.1378 85.6079 -0.514429 -0.111989 0.849979
-9.76306 38.0493 86.0727 -0.459352 -0.158194 0.874054
-8.46568 37.9857 86.7216 -0.436597 -0.156718 0.885901
-7.09044 38.0028 87.2905 -0.306798 -0.15642 0.938817
-6.03672 37.9739 87.6189 -0.29587 -0.15901 0.9419
-5.07149 37.9117 87.9068 -0.289987 -0.0936419 0.952438
-3.98775 37.8301 88.2263 -0.256048 -0.0813334 0.962558
-2.6146 37.7389 88.4338 -0.124772 -0.128436 0.983826
-1.22189 37.7758 88.6058 -0.108229 -0.196776 0.97186
-0.127691 37.8913 88.6571 -0.0217171 -0.188662 0.981802
1.10369 38.0454 88.7136 -0.0200751 -0.0698616 0.997216
2.18435 38.0962 88.5236 0.187858 -0.18521 0.964553
4.03982 38.0639 88.1381 0.195708 -0.18373 0.96329
5.27533 38.0378 87.8472 0.23699 -0.168983 0.956678
6.42156 38.0963 87.5588 0.270605 -0.0977833 0.957416
7.57747 38.1784 87.0878 0.389475 -0.115104 0.913816
8.52115 38.2918 86.6978 0.428108 -0.114602 0.895535
10.1713 38.5402 85.8314 0.484946 -0.0831022 0.870587
11.753 38.8614 84.9774 0.490469 -0.0756506 0.868136
12.61 38.9876 84.4341 0.546126 -0.0842677 0.833453
13.7938 39.074 83.6217 0.610097 -0.0856394 0.787684
14.8889 39.0417 82.7479 0.634668 -0.0490774 0.771223
16.1303 39.3118 81.7501 0.643569 -0.0203556 0.764747
16.7706 40.0764 81.2083 0.66431 -0.0240885 0.747068
17.1238 41.8056 80.8838 0.7039 0.00418455 0.710287
16.8245 43.1234 81.1385 0.689073 0.0220614 0.724356
16.4079 44.0033 81.5078 0.693182 0.0191847 0.720478
15.605 45.0209 82.3056 0.699373 -0.0168248 0.714559
14.873 45.6753 82.9724 0.665029 0.0061849 0.746792
13.7832 46.5877 83.8839 0.605389 0.00732762 0.794943
12.7993 47.2767 84.581 0.570869 -0.00650528 0.821015
11.737 47.6754 85.3049 0.557484 -0.0102331 0.830116
10.8607 47.7979 85.896 0.522264 -0.0235186 0.851454
9.59462 47.7992 86.6042 0.492249 -0.0201016 0.87009
8.49167 47.7463 87.152 0.417054 -0.000747252 0.90888
7.5672 47.7038 87.5689 0.383736 -0.00913807 0.923397
6.21343 47.6671 88.1071 0.333095 0.012777 0.942073
4.94159 47.6815 88.4556 0.258068 0.0359081 0.96542
3.75345 47.712 88.7244 0.186525 -0.00608614 0.982431
2.60851 47.7231 88.9412 0.167549 0.00811949 0.985561
1.54959 47.7153 89.0435 0.0823053 -0.00223779 0.996605
-0.220774 47.6757 89.1129 -0.0106207 -0.00786442 0.999908
-1.50959 47.6516 89.0874 -0.0501266 -0.00437165 0.998599
-2.66668 47.661 89.0118 -0.067072 -0.0111357 0.997686
-3.88322 47.6892 88.8818 -0.21136 0.0352266 0.975205
-4.90599 47.7521 88.6019 -0.26451 0.0178215 0.964217
-5.87302 47.7851 88.3237 -0.284005 -0.0451883 0.957757
-6.83637 47.7876 88.0157 -0.31015 -0.0208314 0.950459
-7.9187 47.7772 87.6551 -0.359745 -0.0434743 0.930552
-9.12539 47.807 87.0832 -0.455451 -0.033046 0.889266
-10.0703 47.8271 86.5851 -0.503554 -0.0220981 0.862623
-11.186 47.7074 85.8587 -0.541919 -0.0279947 0.839948
-12.3221 47.3132 85.0909 -0.56078 -0.0396808 0.827013
-12.5677 47.1687 84.9171 -0.561072 -0.024421 0.82726
-12.7947 47.932 84.7996 -0.574558 -0.0276025 0.817763
-11.9191 48.3523 85.4138 -0.54986 -0.0351213 0.834402
-11.086 48.5196 85.953 -0.538589 -0.031408 0.841983
-10.2152 48.5696 86.5146 -0.506166 -0.0152495 0.861132
-9.28847 48.5604 87.0054 -0.465527 -0.00943688 0.884983
-8.2962 48.5189 87.5316 -0.414059 -0.0118896 0.907864
-7.14689 48.5448 87.9337 -0.316088 -0.0304293 0.948227
-6.12975 48.5433 88.2672 -0.278573 -0.0161177 0.959588
-5.1316 48.5105 88.526 -0.26451 0.0178215 0.964217
-4.13006 48.4619 88.8003 -0.213375 0.0360785 0.974775
-3.07521 48.4361 88.973 -0.160207 0.0523958 0.985692
-1.95101 48.4045 89.0678 -0.0541027 -0.00104887 0.998425
-0.869189 48.4098 89.1076 -0.0354412 0.00345049 0.999366
0.14613 48.4348 89.1228 -0.0106207 -0.00786442 0.999908
1.15627 48.4595 89.0776 0.0823053 -0.00223779 0.996605
3.06073 48.4644 88.857 0.149091 0.0226766 0.988563
4.08778 48.4532 88.6652 0.225939 0.0136082 0.972993
5.06902 48.4389 88.3949 0.268244 0.0334229 0.962767
6.71422 48.4239 87.9037 0.321308 0.0632315 0.94485
8.15735 48.4729 87.3057 0.4138 -0.00669397 0.910324
9.15286 48.5241 86.8541 0.440168 -0.00587463 0.897405
10.7687 48.5531 85.9719 0.525544 -0.0202192 0.849601
11.9068 48.4106 85.2024 0.561533 -0.00736444 0.827393
13.2016 47.939 84.2994 0.581477 0.0118346 0.813467
13.9985 47.3225 83.69 0.625072 0.0227927 0.780166
14.7223 46.7108 83.0979 0.665348 0.00650923 0.746505
15.6892 45.8933 82.2425 0.671169 0.0112075 0.741166
16.4134 45.1418 81.5166 0.700115 -0.01749 0.713816
16.9225 44.3712 81.0092 0.688287 0.005067 0.72526
17.5185 42.949 80.4843 0.698531 0.0130857 0.715263
17.7162 41.8539 80.2965 0.703899 0.00414185 0.710288
17.6638 40.7415 80.3566 0.703841 0.0093801 0.710296
17.3274 39.6982 80.7033 0.683017 -0.00602491 0.72968
16.7788 38.8762 81.1662 0.662301 -0.0194899 0.748984
15.7655 38.3306 82.0149 0.624949 -0.0210243 0.780382
14.7988 38.2646 82.7759 0.604809 -0.0398725 0.795288
13.996 38.3094 83.3812 0.609715 -0.0873484 0.787792
12.6275 38.2472 84.3477 0.544185 -0.0885914 0.83426
11.7535 38.1046 84.8988 0.51605 -0.0910194 0.851177
10.2816 37.8027 85.6975 0.482462 -0.10392 0.869624
9.313 37.6257 86.1907 0.464688 -0.117004 0.877709
7.57003 37.4004 86.9929 0.389933 -0.116215 0.913479
6.47974 37.331 87.3953 0.303138 -0.191691 0.932501
4.973 37.2784 87.7856 0.241731 -0.173341 0.954735
3.81719 37.3179 88.0431 0.193966 -0.177955 0.964733
2.55518 37.3539 88.3057 0.175583 -0.220482 0.958627
1.19913 37.3082 88.5099 0.106154 -0.255694 0.959937
-0.512191 37.0807 88.4929 -0.0175864 -0.212378 0.97671
-1.67198 36.9962 88.3433 -0.10502 -0.261952 0.959319
-2.76886 36.9844 88.2273 -0.103403 -0.264166 0.958904
-3.8553 37.0672 88.1278 -0.175007 -0.253156 0.948977
-4.87529 37.1387 87.8467 -0.300019 -0.162857 0.939929
-6.58962 37.2452 87.3222 -0.29587 -0.15901 0.9419
-7.69135 37.2456 86.9394 -0.413782 -0.179658 0.892472
-8.89119 37.2233 86.3782 -0.425656 -0.167007 0.889173
-10.0365 37.3194 85.7985 -0.458424 -0.154813 0.875146
-11.0784 37.3878 85.23 -0.509891 -0.150625 0.846722
-12.0992 37.4329 84.6019 -0.514966 -0.129845 0.847215
-13.1028 37.4328 83.9251 -0.589531 -0.0925823 0.802422
-13.9168 37.3875 83.3218 -0.589994 -0.0908682 0.802276
-14.7489 37.2551 82.6572 -0.616995 -0.0809164 0.782796
-15.6113 36.9449 81.945 -0.613062 -0.0844929 0.785486
-16.3349 36.4421 81.2592 -0.670874 -0.0530355 0.739668
-16.9615 35.6899 80.6282 -0.653937 -0.0534034 0.754129
-17.4836 34.8747 80.1063 -0.666957 -0.0248864 0.744347
-18.1507 33.6583 79.5156 -0.652974 -0.0158378 0.757171
-18.5008 32.5878 79.1856 -0.644211 -0.0201553 0.764551
-18.8174 31.6416 78.9005 -0.633207 -0.0129346 0.773838
-19.1118 30.6151 78.6521 -0.629474 -0.00865974 0.776974
-19.4269 29.6525 78.3769 -0.636217 -0.0229838 0.771168
-19.7769 28.4007 78.0509 -0.637238 -0.0199208 0.770403
-20.0725 27.4788 77.7915 -0.6294 -0.0156552 0.776924
-20.696 25.9181 77.2506 -0.631121 -0.0192551 0.775445
-21.1785 24.8414 76.8419 -0.633602 -0.00487178 0.773641
-21.6223 23.9922 76.4757 -0.63266 -0.00332974 0.774422
-22.0996 23.1928 76.0808 -0.646415 -0.0132444 0.762719
-22.9566 23.4694 75.3496 -0.65388 -0.0253971 0.756172
-23.5203 25.1307 74.891 -0.663936 -0.00692237 0.747758
-23.8392 26.9425 74.6318 -0.662323 -0.012106 0.74912
-23.7523 28.0187 74.7147 -0.65978 0.00701823 0.751373
-23.4361 29.2885 74.9695 -0.66283 0.0147258 0.748625
-23.1368 30.2122 75.2159 -0.662792 0.0151732 0.748649
-22.5847 31.4928 75.6481 -0.656163 0.0481758 0.753046
-22.054 32.457 76.0554 -0.66049 0.0496747 0.749186
-21.4111 33.3603 76.56 -0.672298 0.0464022 0.738643
-20.3944 34.2925 77.4231 -0.703126 0.0788182 0.70566
-19.617 35.0437 78.187 -0.699671 0.0328248 0.71229
-18.793 35.7053 78.9456 -0.679219 -0.0230932 0.73357
-18.0534 36.4569 79.6687 -0.690155 -0.0476603 0.722091
-17.4772 37.1045 80.2622 -0.683607 -0.0515985 0.727957
-16.817 38.297 80.9812 -0.688142 -0.0594255 0.722755
-16.4467 39.3061 81.4039 -0.698845 -0.033941 0.714425
-16.2031 40.4145 81.6735 -0.673566 -0.0191726 0.738878
-15.9374 41.8105 81.9484 -0.673783 -0.0108931 0.738833
-15.7851 42.893 82.0969 -0.674767 -0.00748383 0.737991
-15.5325 44.1741 82.3867 -0.693548 -0.0362312 0.719495
-14.909 45.4067 83.021 -0.670631 -0.0224021 0.741453
-14.3763 46.2478 83.5262 -0.64792 -0.0197217 0.761086
-13.5504 47.2848 84.2129 -0.630736 -0.0212201 0.775643
-13.3198 47.5441 84.4113 -0.609394 -0.0232022 0.791989
-13.6291 48.2325 84.1866 -0.632154 -0.0313354 0.774209
-14.3201 47.4031 83.5892 -0.632161 -0.021225 0.774485
-14.9245 46.5515 83.045 -0.668676 -0.0261692 0.743092
-15.4239 45.8166 82.5688 -0.676973 -0.020726 0.735643
-15.8948 44.9934 82.0724 -0.707138 -0.0292923 0.706467
-16.2732 43.7052 81.6542 -0.685159 -0.00783373 0.728345
-16.4005 42.6716 81.5281 -0.684362 -0.00345394 0.729134
-16.525 41.6537 81.4067 -0.69009 -0.00876395 0.723606
-16.7423 40.5338 81.1592 -0.698657 -0.0236324 0.715066
-16.9742 39.5813 80.9007 -0.69802 -0.0252566 0.715631
-17.3238 38.622 80.5021 -0.700441 -0.0417873 0.712486
-18.1005 37.4129 79.6866 -0.690066 -0.0487839 0.7221
-19.0755 36.4649 78.7099 -0.732926 0.0075865 0.674529
-20.035 35.527 77.7041 -0.723705 0.0875126 0.683753
-20.6735 34.9024 77.0791 -0.69978 0.0759934 0.709239
-21.4043 34.3121 76.4791 -0.664339 0.0897068 0.741705
-22.0373 33.6329 75.9877 -0.662182 0.0548604 0.747332
-22.61 32.7638 75.5448 -0.66049 0.0496747 0.749186
-23.2294 31.5883 75.0911 -0.65734 0.0388583 0.75248
-23.789 30.1367 74.6402 -0.663296 0.0179095 0.748137
-24.1557 28.933 74.3394 -0.659669 0.0145073 0.751405
-24.3794 27.8095 74.166 -0.659455 0.00779171 0.751665
-24.418 26.6955 74.1173 -0.657108 -0.0131306 0.753682
-24.2821 25.6517 74.2192 -0.663323 -0.00968264 0.748265
-23.8929 24.3861 74.5442 -0.670128 -0.0178737 0.742031
-23.5602 23.4119 74.8178 -0.668758 -0.0218047 0.743161
-23.182 22.3328 75.1163 -0.652221 -0.0309689 0.757374
-22.3419 21.0523 75.7747 -0.638268 -0.0216605 0.769495
-21.9612 21.8885 76.1362 -0.643272 -0.0383237 0.764678
-21.2086 23.4234 76.8099 -0.628601 -0.0130485 0.777617
-20.7115 24.3614 77.2196 -0.631431 -0.00707627 0.775392
-20.2985 25.2537 77.5672 -0.634153 -0.00708759 0.773175
-19.8935 26.2405 77.9117 -0.630268 -0.0174045 0.77618
-19.4027 27.6104 78.3446 -0.637403 -0.0158482 0.770368
-19.0948 28.6412 78.6219 -0.638109 -0.0169301 0.76976
-18.8077 29.6637 78.8878 -0.63266 -0.015955 0.774222
-18.4299 30.8102 79.2068 -0.635624 -0.00931317 0.771901
-18.0508 31.9884 79.5542 -0.649342 -0.0198541 0.760237
-17.4408 33.5504 80.1222 -0.651646 -0.0237073 0.758153
-16.8201 34.6476 80.7056 -0.655801 -0.0415959 0.75327
-16.2426 35.4618 81.2415 -0.657691 -0.0792223 0.749093
-15.5971 36.0424 81.8637 -0.632224 -0.0800672 0.770118
-14.841 36.4158 82.4911 -0.615847 -0.0883532 0.782896
-13.4225 36.6505 83.6 -0.590099 -0.0932925 0.801922
-12.452 36.6717 84.285 -0.506679 -0.117442 0.854096
-11.3605 36.6535 84.9203 -0.506253 -0.139676 0.850687
-10.2809 36.5889 85.5411 -0.474983 -0.158503 0.865378
-9.38518 36.5045 85.9897 -0.440355 -0.174428 0.880716
-8.4581 36.4704 86.4322 -0.411027 -0.171308 0.895383
-7.31096 36.5097 86.9674 -0.357826 -0.168841 0.916328
-6.11017 36.4795 87.3408 -0.295718 -0.162643 0.941328
-4.81728 36.3863 87.7053 -0.241863 -0.236881 0.940948
-3.78713 36.3081 87.9276 -0.105484 -0.268556 0.957471
-2.29374 36.2323 88.0675 -0.0999851 -0.267562 0.958336
-1.06497 36.2824 88.2216 -0.112193 -0.259271 0.959265
0.098495 36.4238 88.3411 -0.0367084 -0.260013 0.964297
1.24583 36.5696 88.3012 0.112335 -0.271607 0.955236
2.26097 36.6213 88.158 0.133519 -0.221321 0.965074
3.63384 36.5859 87.9434 0.190746 -0.183373 0.96436
4.69021 36.5288 87.7214 0.218144 -0.175853 0.959634
6.17045 36.5434 87.3199 0.262475 -0.192611 0.945519
7.40485 36.635 86.906 0.343435 -0.190009 0.919755
8.35908 36.7247 86.5688 0.36667 -0.153662 0.91654
9.34283 36.8604 86.0731 0.465272 -0.116664 0.877446
10.2951 37.0556 85.5909 0.475907 -0.115382 0.871894
11.6925 37.3315 84.8518 0.515296 -0.0931325 0.851389
12.9184 37.5268 84.0789 0.535228 -0.0755516 0.841098
14.0123 37.5497 83.3233 0.592787 -0.0407312 0.804325
14.9498 37.4823 82.6176 0.613992 -0.0410365 0.788245
16.0092 37.5383 81.7948 0.613472 -0.0387954 0.788759
16.8266 37.8892 81.1055 0.654015 -0.0035519 0.756473
17.5948 38.8466 80.4458 0.678079 -0.00638296 0.734246
18.0857 39.8806 79.9457 0.71391 0.00100904 0.700237
18.3027 40.9863 79.7202 0.703908 0.00675323 0.710254
18.1827 42.6978 79.8182 0.709155 0.00984309 0.704983
17.8314 43.8638 80.1621 0.698623 0.0128645 0.715183
17.4201 44.7791 80.541 0.689472 -0.00981073 0.724246
16.5582 46.0206 81.3959 0.699014 -0.00774831 0.714998
15.9349 46.5973 82.0011 0.687105 0.00924232 0.726323
14.9183 47.454 82.9167 0.670933 0.0113432 0.741377
14.2376 48.038 83.4897 0.639363 -0.0056986 0.768884
13.196 48.8395 84.2907 0.583565 0.00414213 0.812052
12.3152 49.1433 84.9241 0.58323 0.00395092 0.812294
11.069 49.2809 85.7753 0.554399 0.0195761 0.831697
10.1376 49.2971 86.3314 0.483602 0.0188326 0.874868
9.05879 49.2589 86.9006 0.440769 0.0052294 0.897309
8.06141 49.2119 87.3589 0.398996 0.00803743 0.916592
6.67448 49.1569 87.8742 0.310158 0.0181697 0.950502
5.65375 49.1574 88.2047 0.284591 0.0548082 0.956569
4.6866 49.1891 88.4753 0.266024 0.0321207 0.963431
3.64761 49.2072 88.7521 0.166505 0.00912131 0.985708
2.56387 49.2179 88.9137 0.146999 0.0254771 0.988805
1.53829 49.2152 89.0491 0.0627768 0.00765607 0.997726
-0.248432 49.1734 89.123 0.0126856 0.00687397 0.999459
-1.28862 49.154 89.0901 -0.0354412 0.00345049 0.999366
-2.35439 49.1661 89.0467 -0.0541027 -0.00104887 0.998425
-3.3877 49.1966 88.8818 -0.160207 0.0523958 0.985692
-4.40407 49.2328 88.7118 -0.213375 0.0360785 0.974775
-5.3959 49.2754 88.4564 -0.244031 -0.00378316 0.969758
-6.40369 49.3036 88.2002 -0.279447 -0.0157906 0.959365
-7.43402 49.3071 87.8573 -0.353384 0.0116124 0.935403
-8.47189 49.2772 87.4614 -0.414059 -0.0118896 0.907864
-9.44704 49.3033 86.9407 -0.471646 -0.0270874 0.881372
-10.3998 49.3168 86.4097 -0.519116 -0.00040002 0.854394
-11.2938 49.2691 85.8386 -0.538168 -0.00699325 0.842809
-12.1259 49.1065 85.3013 -0.573282 0.0138135 0.819127
-13.2882 48.5061 84.4523 -0.587211 -0.0152536 0.80929
-13.5144 48.3556 84.2854 -0.609709 -0.0236483 0.791713
-13.7713 49.1001 84.1064 -0.646406 -0.0178087 0.762431
-14.4294 48.3507 83.5236 -0.661101 -0.00381358 0.750287
-15.0387 47.4844 82.9641 -0.683083 -0.0141233 0.730204
-15.675 46.5788 82.3498 -0.683655 -0.0152802 0.729646
-16.1946 45.8025 81.8052 -0.708275 -0.0274374 0.705403
-16.7074 44.6148 81.2603 -0.683839 -0.0114433 0.729543
-16.8938 43.5979 81.0699 -0.683729 -0.00746174 0.729689
-16.99 42.574 80.9743 -0.689901 -0.00877096 0.723787
-17.0931 41.4739 80.8526 -0.695558 -0.020536 0.718149
-17.3029 40.5034 80.6137 -0.695117 -0.0255017 0.718443
-17.6689 39.3567 80.2201 -0.693275 -0.0365834 0.71964
-18.0717 38.5198 79.7865 -0.690993 -0.041972 0.721641
-18.6582 37.8202 79.1801 -0.734457 -0.0241471 0.674812
-19.3495 37.1143 78.3109 -0.785876 0.019575 0.617463
-20.0266 36.3985 77.5599 -0.72259 0.106674 0.682862
-20.8646 35.6113 76.8265 -0.71804 0.0880735 0.689396
-21.7017 34.9423 76.1491 -0.650339 0.0916023 0.754101
-22.7026 33.7943 75.3864 -0.658426 0.0564176 0.750508
-23.3704 32.6655 74.8951 -0.653959 0.0609562 0.754069
-23.9677 31.383 74.4463 -0.661011 0.0248202 0.749947
-24.3179 30.4351 74.162 -0.656745 0.0265611 0.753562
-24.7061 29.1989 73.8551 -0.656523 0.0144393 0.754167
-25.0032 27.2146 73.6153 -0.662668 0.000672832 0.748913
-24.9808 26.2041 73.6179 -0.657171 -0.0133327 0.753624
-24.56 24.5081 73.9449 -0.662234 -0.0192996 0.748974
-24.0523 23.0564 74.3646 -0.668462 -0.021826 0.743426
-23.6769 21.9873 74.6752 -0.662185 -0.0112572 0.749256
-23.2869 20.8006 74.982 -0.639515 -0.0172099 0.768586
-22.983 19.7611 75.2029 -0.636105 -0.024986 0.771198
-23.0843 18.2219 75.0458 -0.64728 -0.0315226 0.7616
-23.3888 16.8105 74.7276 -0.650975 -0.0348369 0.758278
-23.8812 15.8983 74.2796 -0.655465 -0.0151602 0.755073
-24.3711 14.8594 73.8253 -0.665324 -0.0312895 0.745898
-24.9093 13.567 73.2958 -0.667661 -0.012595 0.744322
-25.0577 12.0622 73.148 -0.662551 -0.0191972 0.748694
-24.2336 10.5391 73.8134 -0.652661 -0.0323845 0.756889
-23.1695 9.69543 74.6961 -0.648497 -0.0198558 0.76095
-22.2394 9.16692 75.4755 -0.645289 -0.0189243 0.763691
-21.6205 10.1881 75.9893 -0.62757 -0.00592329 0.778537
-21.1698 11.1461 76.3794 -0.633313 -0.0222877 0.773574
-20.6893 12.5315 76.7949 -0.614021 -0.032818 0.788607
-20.6033 13.5475 76.9025 -0.614461 -0.0297502 0.788385
-20.9057 14.7909 76.7139 -0.62399 -0.0229815 0.780939
-21.4504 16.1285 76.3333 -0.631992 -0.0496754 0.773381
-22.0019 17.8378 75.9546 -0.649432 -0.0301119 0.759823
-22.0667 18.971 75.9308 -0.633511 -0.0340667 0.772781
-21.7967 20.5166 76.2271 -0.652389 -0.0232446 0.757528
-21.4658 21.4571 76.5338 -0.646333 -0.0212611 0.762758
-20.8218 22.7954 77.111 -0.627659 -0.0133418 0.778374
-20.2419 23.8673 77.5904 -0.596705 -0.0361084 0.801567
-19.8282 24.7416 77.9325 -0.607524 -0.020101 0.794047
-19.4341 25.6809 78.2564 -0.614919 -0.0273423 0.788009
-19.0988 26.6221 78.5655 -0.624786 -0.0359154 0.779962
-18.6755 27.9966 78.9551 -0.637082 -0.0199576 0.770531
-18.3424 29.1527 79.2561 -0.636782 -0.0198443 0.770781
-18.0123 30.1966 79.5479 -0.641839 -0.0111655 0.766757
-17.5935 31.4659 79.9282 -0.646309 -0.0234635 0.762715
-17.0577 32.8364 80.4284 -0.613929 -0.0328884 0.787253
-16.5987 33.7046 80.797 -0.598791 -0.0722914 0.796537
-15.7978 34.8773 81.5667 -0.646197 -0.0643321 0.760235
-14.8707 35.5683 82.3778 -0.609599 -0.0806647 0.788595
-13.6805 35.8463 83.3159 -0.5909 -0.0936785 0.801287
-12.7441 35.8771 84.0042 -0.587379 -0.0956114 0.803642
-11.7188 35.8994 84.6132 -0.501202 -0.112278 0.857987
-10.2332 35.8324 85.4342 -0.463618 -0.134593 0.87544
-9.16997 35.743 85.9473 -0.439485 -0.17407 0.881222
-8.03648 35.7276 86.4835 -0.415172 -0.164208 0.89476
-6.9075 35.7343 86.9579 -0.302691 -0.174958 0.936843
-5.92338 35.7191 87.2634 -0.294595 -0.170813 0.940232
-4.91704 35.6487 87.5059 -0.225295 -0.200993 0.953333
-3.91488 35.5465 87.6994 -0.124699 -0.21924 0.966162
-2.75918 35.4777 87.8464 -0.122407 -0.179292 0.976148
-1.48964 35.5125 87.9472 -0.0750908 -0.246893 0.964861
-0.491586 35.5789 88.0767 -0.0329779 -0.301809 0.950067
1.02308 35.8085 88.0879 0.0246335 -0.286024 0.95627
2.14895 35.877 88.023 0.100604 -0.194171 0.975776
3.67138 35.8451 87.7955 0.189567 -0.184592 0.964358
4.7079 35.7832 87.5644 0.231722 -0.198949 0.951867
6.30372 35.7567 87.1233 0.260705 -0.194559 0.945606
7.36614 35.8708 86.7715 0.335762 -0.169056 0.926651
8.75063 36.0227 86.2729 0.416486 -0.150871 0.894592
9.64425 36.1658 85.8198 0.465259 -0.119575 0.87706
10.7256 36.3624 85.2639 0.474939 -0.122324 0.871467
11.6073 36.5498 84.8057 0.481958 -0.126266 0.86704
13.0878 36.8025 83.9234 0.528864 -0.0578645 0.846732
13.9305 36.7976 83.3334 0.578773 -0.0636351 0.813002
14.7626 36.7223 82.7239 0.613192 -0.0387994 0.788977
15.8734 36.7129 81.862 0.612485 -0.0365416 0.789637
16.7912 36.9292 81.12 0.639182 -0.0395287 0.768039
17.5257 37.531 80.4985 0.678399 -0.00552939 0.733949
18.0599 38.3922 79.9821 0.707359 0.000500286 0.706753
18.7949 40.1147 79.2221 0.713977 0.00142933 0.700168
18.8558 41.5349 79.1181 0.750071 -0.0192438 0.661077
18.7581 42.8107 79.2379 0.709238 0.00777323 0.704923
18.2012 44.4881 79.7795 0.720712 -0.00396164 0.692882
17.7123 45.5469 80.2709 0.694063 -0.00610503 0.719888
16.9495 46.5938 81.0125 0.697408 0.0011776 0.716672
16.1784 47.3053 81.7622 0.687066 0.00866971 0.726359
15.4795 47.8828 82.3941 0.676937 0.0066948 0.736011
14.6917 48.5662 83.0989 0.664346 0.0144603 0.747285
13.8579 49.2975 83.813 0.610682 0.000878768 0.791053
13.029 49.793 84.4087 0.583288 -0.00580664 0.812244
12.0519 49.953 85.1016 0.554389 0.0249145 0.831507
10.817 50.0404 85.9015 0.545806 0.0498231 0.836422
9.83734 50.0429 86.455 0.479689 0.0559863 0.87565
8.72459 49.9928 87.0419 0.401428 0.0250587 0.915512
7.59739 49.9423 87.5299 0.38771 0.0309498 0.921262
6.37276 49.9069 87.955 0.307522 0.0212954 0.951303
5.393 49.909 88.2629 0.284406 0.0240073 0.958271
4.41534 49.9357 88.5342 0.266221 0.0204224 0.963695
3.42687 49.9564 88.7734 0.185942 0.0317489 0.981061
2.40851 49.9656 88.9228 0.144583 0.0151625 0.989377
1.38169 49.9619 89.0504 0.0769791 0.0204189 0.996095
0.354736 49.9402 89.0946 0.0412731 0.002393 0.999144
-0.673086 49.9113 89.0995 -0.0254296 0.0247544 0.999295
-1.70149 49.9022 89.0611 -0.0397292 0.0187638 0.999033
-2.70942 49.9233 88.9651 -0.137375 0.0476955 0.98899
-3.70694 49.9607 88.7994 -0.164902 0.0353332 0.985674
-4.70571 50.0038 88.6276 -0.204466 0.0197624 0.977861
-5.68965 50.0418 88.3837 -0.243404 0.00271024 0.969915
-6.68779 50.0663 88.1279 -0.315229 0.0131484 0.947858
-7.67643 50.0562 87.7564 -0.353384 0.0116124 0.935403
-8.68543 50.0301 87.3704 -0.414945 -0.00660029 0.907456
-9.65274 50.0517 86.8359 -0.500818 0.00616401 0.86553
-10.6183 50.073 86.2764 -0.520758 0.00156308 0.853424
-11.5122 50.0249 85.6988 -0.562553 0.0185281 0.826553
-12.4267 49.8166 85.0765 -0.584234 0.00983014 0.811526
-13.6823 49.1826 84.1792 -0.586097 -0.00267957 0.810138
-13.7139 49.1616 84.1558 -0.609709 -0.0236483 0.791713
-13.9094 49.9598 83.9934 -0.627712 0.00557608 0.777138
-12.908 50.4615 84.7222 -0.589021 0.0134654 0.807975
-11.7587 50.7859 85.514 -0.564932 -0.00345606 0.824833
-10.8812 50.8428 86.1146 -0.53784 -0.00912701 0.842294
-9.89534 50.8088 86.6907 -0.5028 0.000147878 0.864402
-8.91894 50.7825 87.2574 -0.453045 0.0214844 0.88931
-7.93401 50.8067 87.6578 -0.359055 -0.00472553 0.933296
-6.98557 50.8239 88.0183 -0.315229 0.0131484 0.947858
-6.01209 50.8061 88.2982 -0.274051 0.0346731 0.961089
-5.03923 50.7726 88.5414 -0.205976 0.0226206 0.977524
-4.03934 50.7272 88.715 -0.167295 0.0373666 0.985198
-3.05171 50.6836 88.8814 -0.137877 0.0464567 0.988977
-1.57645 50.6483 89.0508 -0.0750257 0.0392856 0.995539
-0.0850566 50.6764 89.084 -0.0147396 0.0322966 0.99937
0.962009 50.7022 89.067 0.0755818 0.0212203 0.996166
2.02227 50.7092 88.9497 0.11042 0.0397366 0.99309
3.07997 50.703 88.8133 0.183288 0.0339178 0.981503
4.10981 50.6827 88.5779 0.225791 0.0503067 0.972876
5.12552 50.6581 88.323 0.282785 0.0242843 0.958716
6.14988 50.6485 88.0027 0.299965 0.0304516 0.953463
7.24622 50.6702 87.6536 0.347942 0.0270125 0.936149
8.19282 50.7221 87.2529 0.389122 0.0312293 0.920656
9.35531 50.762 86.7142 0.50107 0.00442834 0.865392
10.5822 50.7867 86.0015 0.491595 0.027652 0.869896
11.7594 50.732 85.2641 0.534625 0.0167509 0.844923
12.7635 50.6455 84.6052 0.568942 0.00643444 0.822147
13.62 50.434 83.9889 0.610103 0.00578905 0.791474
14.7001 49.512 83.0728 0.660623 0.00711566 0.750618
15.6918 48.6227 82.1921 0.67693 0.0066729 0.736017
16.4234 48.0182 81.5257 0.686371 -0.00178556 0.727056
17.5262 47.0213 80.4525 0.696503 0.000471234 0.717554
18.0742 46.1555 79.9271 0.694314 -0.00194436 0.719658
18.483 45.3323 79.5118 0.7367 -0.0257302 0.675531
18.8274 44.4043 79.13 0.731389 0.0237142 0.681406
19.1482 43.5091 78.815 0.751158 0.00481624 0.658554
19.3891 42.0235 78.5243 0.777885 0.0131787 0.628262
19.3803 40.497 78.5393 0.74857 0.0347916 0.662141
19.2338 39.3238 78.7717 0.732461 0.0189838 0.679827
18.6646 38.2346 79.3693 0.712969 0.009953 0.701125
18.1986 37.4325 79.834 0.701145 -0.00838213 0.712968
17.6365 36.5431 80.385 0.692504 0.005167 0.721343
16.8106 36.0708 81.0642 0.620763 -0.00427232 0.783981
15.9938 35.9338 81.7326 0.625872 -0.0380548 0.778803
15.0101 35.936 82.493 0.609404 -0.0416348 0.791766
14.0776 36.029 83.1783 0.570316 -0.0354367 0.820659
13.1223 36.0722 83.852 0.553908 -0.0603187 0.82985
11.56 35.776 84.719 0.485423 -0.126857 0.865027
10.6079 35.5614 85.2129 0.476004 -0.126918 0.870235
9.71493 35.4136 85.6788 0.469741 -0.124766 0.873912
8.63746 35.2441 86.1669 0.369786 -0.175908 0.912313
7.41029 35.0982 86.6134 0.353774 -0.168504 0.919872
6.39359 34.9766 86.9536 0.287641 -0.1751 0.940546
4.72092 35.0424 87.4063 0.231866 -0.199079 0.951809
3.02737 35.1314 87.7837 0.194052 -0.19359 0.961655
1.46209 35.1133 87.8972 0.0703878 -0.247078 0.966433
0.251203 34.9889 87.8821 -0.00509367 -0.236221 0.971684
-0.8131 34.8213 87.829 -0.0459058 -0.206446 0.977373
-1.94713 34.7422 87.7611 -0.0420712 -0.210713 0.976642
-3.23335 34.7004 87.6445 -0.135736 -0.202502 0.969502
-4.36799 34.7715 87.453 -0.204334 -0.205181 0.956842
-5.9238 34.9603 87.1228 -0.259022 -0.187859 0.946729
-7.35571 34.9777 86.6649 -0.357291 -0.179999 0.915155
-8.28521 34.9753 86.2348 -0.418856 -0.156297 0.8945
-9.70198 35.0271 85.5631 -0.433029 -0.147577 0.889217
-10.6479 35.1176 85.1006 -0.448724 -0.151968 0.880654
-11.8603 35.1243 84.4233 -0.509742 -0.127028 0.850821
-12.7439 35.0635 83.8751 -0.54569 -0.131508 0.826851
-13.8919 35.0332 83.0456 -0.564586 -0.113704 0.817041
-14.6845 34.8092 82.4409 -0.606575 -0.0896645 0.789953
-15.5521 34.016 81.6716 -0.617352 -0.103936 0.779787
-16.0958 33.1775 81.1273 -0.598953 -0.0723904 0.796423
-16.5766 32.2762 80.7414 -0.578738 -0.0318392 0.814854
-17.1113 30.99 80.3117 -0.584763 -0.0333337 0.810517
-17.4557 29.9896 79.9905 -0.595633 -0.0614428 0.800878
-17.8556 28.6419 79.6073 -0.59338 -0.0290593 0.804393
-18.1365 27.6885 79.3631 -0.597364 -0.0324598 0.801304
-18.6001 26.216 78.9443 -0.620346 -0.0391174 0.78335
-18.9214 25.2709 78.645 -0.620409 -0.0370933 0.783401
-19.3317 24.253 78.3 -0.604648 -0.0317014 0.795765
-19.7481 23.3578 77.935 -0.596705 -0.0361084 0.801567
-20.4821 22.0569 77.3527 -0.589978 -0.0321889 0.806762
-20.9498 21.073 76.9604 -0.619329 -0.0319596 0.783646
-21.274 20.1772 76.6532 -0.640737 -0.0286579 0.76722
-21.4528 18.9392 76.4332 -0.634361 -0.0519234 0.771291
-21.2674 17.5106 76.5535 -0.613299 -0.0338604 0.788558
-20.9164 16.4543 76.7687 -0.593435 -0.0224695 0.804567
-20.5372 15.53 77.0214 -0.591834 -0.0235448 0.805715
-20.0996 14.28 77.3087 -0.590464 -0.0208842 0.806793
-20.0367 12.7092 77.3096 -0.60015 -0.0290993 0.799174
-20.2916 11.5962 77.0649 -0.609949 -0.0232023 0.792024
-20.9204 10.2401 76.5581 -0.621807 -0.0183088 0.782792
-21.3468 9.302 76.1947 -0.621254 -0.0198728 0.783356
-21.6666 8.07185 75.9124 -0.619529 -0.0194856 0.784732
-21.4104 6.24053 76.0729 -0.623985 -0.0187241 0.781212
-20.93 5.11262 76.4363 -0.630218 -0.00538095 0.776399
-20.3043 4.04816 76.9368 -0.615877 -0.00560848 0.78762
-19.7206 3.25161 77.3622 -0.601256 -0.0159938 0.798896
-18.877 2.30351 77.9748 -0.580263 -0.00892148 0.81404
-18.1216 1.42906 78.4811 -0.5637 -0.00231459 0.825964
-17.7012 0.524876 78.771 -0.566983 -0.00307702 0.823714
-17.4472 -0.589028 78.9393 -0.570555 -0.00292085 0.821254
-17.2422 -2.04642 79.0775 -0.570662 0.00191676 0.821174
-17.2175 -3.16112 79.0992 -0.559713 -0.0013365 0.828685
-17.4799 -4.57086 78.9478 -0.567624 0.0308424 0.822658
-17.849 -5.56608 78.7204 -0.574265 0.0259272 0.818259
-18.4888 -6.60929 78.3033 -0.57996 0.0220709 0.814288
-19.1352 -7.23983 77.8487 -0.593677 0.0223213 0.804366
-20.2165 -7.78667 77.0428 -0.617599 0.00969827 0.786423
-21.0536 -7.86224 76.3803 -0.619212 0.00826099 0.785168
-22.3556 -7.39392 75.3218 -0.639388 -0.00687233 0.768854
-23.1201 -6.84246 74.6577 -0.655669 0.0101616 0.75498
-23.8053 -6.14814 74.0475 -0.666424 0.0109775 0.745475
-24.3529 -5.30633 73.5509 -0.666921 0.00515086 0.74511
-24.6906 -4.38289 73.2481 -0.664093 -0.0108197 0.747498
-24.9244 -3.23652 73.0729 -0.660428 -0.0150538 0.750678
-25.04 -2.08117 72.9755 -0.684096 -0.000843327 0.729391
-24.9826 -0.840568 73.0354 -0.679184 -0.00104135 0.733918
-24.6682 0.353306 73.3145 -0.660072 0.00422506 0.75093
-24.1967 1.34117 73.7127 -0.650746 0.00560732 0.759227
-23.5442 2.402 74.2596 -0.65702 3.414e-05 0.753759
-22.9836 3.23765 74.7396 -0.639622 -0.00186041 0.768687
-22.5325 4.2101 75.1186 -0.636609 -0.00863662 0.771123
-22.209 5.38247 75.3965 -0.633744 -0.009804 0.773481
-21.7895 7.05093 75.7863 -0.640374 -0.016525 0.767872
-22.5472 8.02133 75.1764 -0.645937 -0.028054 0.762875
-23.2874 8.91992 74.5754 -0.649483 -0.0235591 0.760011
-24.1503 9.58178 73.8534 -0.653937 -0.0250274 0.756135
-24.8787 10.2031 73.2396 -0.656609 -0.0244942 0.753833
-25.3875 11.0458 72.8247 -0.656549 -0.0245084 0.753885
-25.6974 12.3156 72.5826 -0.669165 -0.0176697 0.742817
-25.4828 13.78 72.7887 -0.662099 -0.0137284 0.749258
-25.0941 14.7215 73.1733 -0.66784 -0.0337465 0.743539
-24.645 15.6496 73.6132 -0.659989 -0.0229659 0.750844
-24.201 16.5683 74.019 -0.653421 -0.0201478 0.756726
-23.7655 17.7347 74.4467 -0.650975 -0.0348369 0.758278
-23.5989 18.9398 74.6418 -0.645503 -0.0420525 0.762599
-23.7617 20.0163 74.5625 -0.654361 -0.0335301 0.755334
-24.1339 21.4881 74.2637 -0.661884 -0.0113597 0.74952
-24.4901 22.4587 73.9633 -0.662005 -0.0111427 0.749416
-24.845 23.5142 73.6704 -0.65626 -0.024147 0.754139
-25.2468 24.6505 73.3542 -0.654576 -0.0211574 0.7557
-25.5423 25.8731 73.1222 -0.657552 -0.0126283 0.753303
-25.5543 27.6584 73.1272 -0.662668 0.000672832 0.748913
-25.4482 28.6745 73.2197 -0.65916 0.00767461 0.751922
-25.0759 30.0659 73.5248 -0.654823 0.0163033 0.755558
-24.6833 31.1968 73.8169 -0.656181 0.0268635 0.754055
-24.0959 32.5907 74.2659 -0.66491 0.0520585 0.745107
-23.4068 33.8664 74.7701 -0.654454 0.0570653 0.753946
-22.832 34.7088 75.2027 -0.656472 0.0779601 0.750248
-21.9532 35.607 75.8521 -0.648466 0.090709 0.755818
-21.1541 36.159 76.4291 -0.666449 0.143181 0.72896
-20.088 37.2609 77.3756 -0.748886 0.0458856 0.658214
-19.5554 37.8485 78.0579 -0.785946 -0.0118157 0.618167
-18.8659 38.548 78.927 -0.776559 -0.00443685 0.630029
-18.3762 39.2743 79.534 -0.726327 -0.0167412 0.685493
-17.9455 40.2409 79.9848 -0.693234 -0.0244317 0.720297
-17.6528 41.4193 80.3081 -0.696402 -0.0204952 0.717339
-17.5483 42.4843 80.4316 -0.695815 -0.0139941 0.718085
-17.4847 43.5348 80.5069 -0.728392 -0.00322355 0.685099
-17.3481 44.5556 80.6434 -0.709876 0.00323518 0.704319
-17.0481 45.5652 80.9401 -0.708438 -0.00530616 0.705694
-16.4638 46.5845 81.5653 -0.716221 -0.0211851 0.697552
-15.761 47.5239 82.288 -0.684341 -0.0139444 0.729029
-15.1474 48.4254 82.8796 -0.683553 -0.0130172 0.729785
-14.5362 49.2949 83.434 -0.662094 -0.00533163 0.749397
-14.3025 49.5546 83.6429 -0.661229 -0.00774965 0.750144
-14.6847 50.1928 83.312 -0.66186 -0.00761777 0.749589
-13.5247 51.1161 84.2508 -0.606785 0.00852116 0.794627
-12.6969 51.3935 84.8686 -0.593358 -0.00146129 0.804929
-11.5446 51.6222 85.6849 -0.564868 -0.0287237 0.824667
-10.326 51.5746 86.4399 -0.507947 0.00320747 0.86136
-9.28769 51.5408 87.0428 -0.501918 0.000690268 0.864915
-8.16258 51.5444 87.5567 -0.397608 0.0441412 0.916463
-6.49722 51.5668 88.1323 -0.274373 0.0335545 0.961037
-5.41527 51.535 88.4409 -0.252019 0.0517088 0.966012
-4.402 51.4934 88.6265 -0.170961 0.0229395 0.985001
-3.39932 51.4498 88.7986 -0.159849 0.0297882 0.986648
-2.15497 51.4019 88.9534 -0.110077 0.0193938 0.993731
-0.551784 51.414 89.0537 -0.0149683 0.0306483 0.999417
0.501672 51.437 89.068 0.00550369 0.045729 0.998644
1.59744 51.4476 88.9744 0.109758 0.0123677 0.993881
2.70426 51.4433 88.8519 0.141847 0.0316263 0.988685
3.79097 51.4265 88.624 0.221054 0.0149926 0.975146
4.84449 51.4079 88.3825 0.252879 0.0243675 0.966681
5.88403 51.3942 88.0652 0.29835 0.0229098 0.954182
6.97509 51.4126 87.722 0.322334 0.0333449 0.945679
8.09205 51.4449 87.274 0.391166 0.0203681 0.920095
9.39689 51.4832 86.6819 0.475896 0.0317818 0.878417
10.3011 51.5267 86.1562 0.507276 0.0158385 0.861635
11.3077 51.514 85.5346 0.531649 0.0171718 0.84679
12.4336 51.4315 84.8133 0.554836 0.0150563 0.831816
13.3261 51.398 84.2037 0.576818 0.0237915 0.816414
14.1331 51.0117 83.5518 0.63809 0.0172629 0.769767
15.0088 50.1835 82.7987 0.664661 -0.000443282 0.747145
15.7381 49.5162 82.1432 0.674336 0.00612541 0.738397
16.5959 48.7985 81.3623 0.674977 0.00326968 0.737831
17.2503 48.2489 80.722 0.698023 -0.00564373 0.716049
18.2564 47.0695 79.7483 0.708657 0.0157036 0.704943
18.7311 46.1951 79.2874 0.744382 0.0152776 0.666781
19.1568 45.1514 78.7758 0.740382 -0.0147044 0.671977
19.6283 43.773 78.2181 0.782263 -0.00995087 0.622866
19.8509 42.499 77.9402 0.779175 0.0118098 0.626695
19.8861 41.2234 77.9221 0.777313 0.0131744 0.628977
19.872 39.5033 77.9788 0.77824 0.0158521 0.627767
19.5095 38.439 78.438 0.758092 -0.00374797 0.652079
18.8937 37.3531 79.1457 0.745498 0.049169 0.662614
18.2762 36.1729 79.7719 0.695334 0.0124002 0.71858
17.6055 35.5381 80.4137 0.681351 -0.00436682 0.731847
16.7912 35.2488 81.0722 0.621181 -0.00678765 0.783635
15.7849 35.1592 81.8573 0.609525 -0.038208 0.791845
14.5245 35.2482 82.8312 0.591649 -0.0406541 0.804855
13.0612 35.3388 83.8191 0.506344 -0.101891 0.85573
11.9185 35.1016 84.4189 0.481853 -0.116838 0.868356
10.2956 34.7432 85.2628 0.476068 -0.11765 0.871435
9.21784 34.5426 85.8022 0.385812 -0.156908 0.909017
8.01144 34.3953 86.2633 0.360351 -0.154085 0.919998
7.01082 34.2362 86.5951 0.323166 -0.16743 0.931414
5.63717 34.212 87.0054 0.243303 -0.17708 0.953649
4.59746 34.3265 87.2799 0.190076 -0.205814 0.95982
3.36741 34.3951 87.5483 0.191751 -0.218031 0.956919
2.0995 34.4082 87.6729 0.0557534 -0.218372 0.974271
0.398947 34.2717 87.7068 0.00680953 -0.228684 0.973368
-0.592089 34.0952 87.6752 0.00480276 -0.215196 0.976559
-1.77377 34.031 87.6225 -0.0445482 -0.195926 0.979605
-2.81219 33.9651 87.5602 -0.108263 -0.174586 0.976475
-3.87461 33.9188 87.3605 -0.193213 -0.184772 0.963278
-5.00779 34.1143 87.1613 -0.232917 -0.197706 0.95218
-6.15949 34.2255 86.898 -0.269187 -0.21946 0.937569
-7.17155 34.2018 86.5837 -0.326251 -0.19262 0.924008
-8.56233 34.2287 85.9743 -0.41938 -0.160462 0.893511
-9.63611 34.2591 85.4674 -0.440243 -0.149807 0.885243
-10.6678 34.3513 84.9581 -0.446055 -0.144854 0.883166
-11.9688 34.3133 84.2265 -0.514075 -0.137338 0.846678
-13.0711 34.2489 83.5049 -0.565532 -0.111988 0.816578
-14.1248 34.2209 82.7999 -0.556244 -0.0951661 0.825514
-14.869 33.7477 82.1737 -0.615282 -0.10415 0.781397
-15.5794 32.6695 81.4703 -0.61732 -0.104132 0.779786
-16.2244 31.4515 80.9682 -0.580548 -0.0256256 0.813821
-16.8191 29.9123 80.4573 -0.585829 -0.056178 0.808462
-17.1529 28.9255 80.1331 -0.592557 -0.0281446 0.805036
-17.4285 27.9279 79.8967 -0.593323 -0.0288026 0.804446
-17.6937 26.9851 79.6642 -0.591979 -0.0293343 0.805407
-18.2033 25.4502 79.2167 -0.583491 -0.0524272 0.810421
-18.5235 24.5177 78.9244 -0.613794 -0.0284268 0.788859
-18.9278 23.5135 78.5642 -0.602739 -0.044501 0.796697
-19.4928 22.456 78.0917 -0.589718 -0.0316416 0.806975
-20.1146 21.3368 77.5877 -0.588868 -0.0370678 0.807378
-20.5265 20.3803 77.2375 -0.592165 -0.0315557 0.805174
-20.7772 19.3658 77.0167 -0.614436 -0.0410115 0.787431
-20.7601 17.9877 76.958 -0.593359 -0.0497416 0.803399
-20.1666 16.2594 77.3149 -0.591553 -0.023392 0.805926
-19.7783 15.3161 77.5713 -0.590852 -0.0240497 0.806422
-19.4616 14.3075 77.7763 -0.588684 -0.0230223 0.808029
-19.3272 13.1427 77.8376 -0.586816 -0.0251346 0.80933
-19.4473 12.1447 77.7194 -0.586864 -0.0253263 0.809289
-20.0025 10.5991 77.2593 -0.59196 -0.0318095 0.805339
-20.7329 9.21177 76.6786 -0.606113 -0.0185125 0.794963
-21.0451 8.08008 76.4032 -0.619305 -0.0192019 0.784916
-20.9684 7.02052 76.4426 -0.620935 -0.0143295 0.783728
-20.5481 5.79036 76.7479 -0.62424 -0.0104695 0.781104
-19.9665 4.79578 77.1976 -0.601816 -0.00659303 0.798608
-19.2382 3.67821 77.7211 -0.58842 -0.0102372 0.808455
-17.9534 2.38403 78.6014 -0.558742 0.00175155 0.82934
-17.2643 1.27924 79.0702 -0.564488 0.0075348 0.82538
-16.9543 0.212334 79.275 -0.524767 0.00826783 0.851206
-16.7807 -0.805043 79.3913 -0.521982 0.00387795 0.852947
-16.5822 -1.9761 79.5182 -0.524171 0.0128929 0.851492
-16.5503 -2.98164 79.5513 -0.560535 -0.00168894 0.828129
-16.7166 -4.30362 79.4528 -0.559938 0.033674 0.827849
-17.1308 -5.52989 79.222 -0.566088 0.0285643 0.8238
-17.6312 -6.54877 78.8995 -0.568057 0.0214903 0.822696
-18.1994 -7.39936 78.5289 -0.572257 0.0244304 0.81971
-18.9123 -8.0495 78.0301 -0.588433 0.0190801 0.80832
-19.7116 -8.4299 77.4445 -0.619913 0.0153635 0.784495
-20.5976 -8.62637 76.7518 -0.622334 0.0074205 0.782716
-21.404 -8.58304 76.1016 -0.638557 -0.00464256 0.76956
-22.1596 -8.34233 75.4766 -0.639296 -0.00583696 0.768939
-22.8982 -7.89022 74.8634 -0.656367 0.00876556 0.75439
-24.0018 -6.94704 73.8886 -0.658425 0.00893377 0.752593
-24.6158 -6.13549 73.3227 -0.666585 0.0120683 0.745311
-25.0389 -5.2567 72.9393 -0.662463 0.00114474 0.749092
-25.3317 -4.24431 72.6811 -0.662745 -0.00402844 0.748825
-25.5203 -3.2652 72.5335 -0.675529 -0.00605079 0.737151
-25.6011 -1.98746 72.4498 -0.684077 -0.0017783 0.729408
-25.5164 -0.578505 72.5401 -0.682418 -0.00732224 0.730925
-25.277 0.392029 72.7574 -0.675095 0.00452631 0.737717
-24.6826 1.78063 73.2846 -0.661138 0.0119853 0.750117
-24.1471 2.65358 73.7342 -0.656425 -0.00119039 0.754291
-23.5944 3.36927 74.2316 -0.649758 -0.00722134 0.759971
-22.9405 4.93105 74.7884 -0.640393 -0.0103139 0.767978
-22.6882 6.16498 75.0179 -0.640432 -0.0161945 0.767831
-22.8205 7.17384 74.9237 -0.642611 -0.0129257 0.766083
-23.7605 8.49928 74.1551 -0.653002 -0.0241966 0.756969
-24.5586 9.0308 73.4819 -0.655684 -0.0235237 0.754667
-25.6434 10.1127 72.5699 -0.657012 -0.0245547 0.75348
-26.1617 11.3943 72.1291 -0.675569 -0.0182159 0.737072
-26.3207 12.5559 72.0218 -0.67417 -0.0267018 0.738094
-26.1292 13.8039 72.22 -0.661285 -0.0205819 0.749853
-25.514 15.3138 72.8224 -0.667388 -0.0318407 0.744026
-24.968 16.3212 73.3493 -0.660003 -0.0218747 0.750901
-24.4857 17.4825 73.8104 -0.654671 -0.0385437 0.75493
-24.197 18.5208 74.1102 -0.660928 -0.0336389 0.749679
-24.396 20.2845 74.0084 -0.668936 -0.0283056 0.742781
-24.6587 21.2364 73.7951 -0.663235 -0.0116573 0.74832
-25.0323 22.1293 73.4791 -0.662763 -0.0115618 0.74874
-25.4226 23.3002 73.1575 -0.658242 -0.0270437 0.75232
-25.9335 24.6857 72.7602 -0.66852 -0.0238791 0.74318
-26.0972 25.9079 72.6213 -0.680777 -0.0079712 0.732447
-26.1255 26.9171 72.6077 -0.678114 -0.00474575 0.73491
-26.1023 28.1055 72.6286 -0.6749 0.000619157 0.737907
-25.9849 29.1515 72.7349 -0.670869 0.00432595 0.741541
-25.5046 30.7056 73.1313 -0.654156 0.0187491 0.756111
-25.0686 31.8315 73.4611 -0.642151 0.0355893 0.765751
