10.2828 48.4493 87.4471 0.467028 -0.00100644 0.884106
11.3695 48.5264 86.7858 0.524041 0.0215596 0.85142
12.3194 48.5175 86.1646 0.567213 0.00492729 0.823556
13.1887 48.3655 85.5666 0.567405 0.00434083 0.823428
14.0044 48.0565 84.9163 0.631463 -0.0191591 0.775166
15.0656 47.2666 84.012 0.677718 0.0123251 0.735219
15.6877 46.6894 83.4487 0.676555 0.0155651 0.736221
16.3411 46.0883 82.8469 0.691657 0.0200643 0.721947
16.9995 45.4933 82.2327 0.696756 0.0100401 0.717132
17.5305 44.8171 81.7124 0.697571 -0.00119335 0.716514
17.9316 43.9607 81.3204 0.697281 0.00127325 0.716797
18.3885 42.6103 80.8788 0.70016 0.00858657 0.713898
18.5377 41.6275 80.7359 0.716799 -0.000187227 0.697174
18.3194 40.1843 80.9558 0.706075 -0.00308719 0.708115
17.8773 39.3114 81.3896 0.702998 -0.00145788 0.71119
16.7058 38.4212 82.4743 0.649862 -0.0356474 0.758628
15.7101 38.1953 83.2689 0.623278 -0.0362203 0.781116
14.8192 38.1286 83.9601 0.619 -0.0614688 0.782648
13.8871 38.0792 84.7088 0.597162 -0.0772902 0.797484
13.045 37.9317 85.2743 0.563912 -0.0761934 0.822312
11.9406 37.6475 85.9874 0.527251 -0.117926 0.840588
11.038 37.4406 86.4966 0.512411 -0.153956 0.844827
9.98823 37.254 87.0397 0.461493 -0.152423 0.873945
9.09259 37.072 87.4728 0.439603 -0.149344 0.885676
7.60302 36.9043 88.1628 0.420865 -0.148447 0.894877
6.5887 36.88 88.525 0.30748 -0.268933 0.9126
5.14921 36.9271 88.9898 0.272342 -0.224081 0.93467
4.04342 37.0241 89.2883 0.219685 -0.265582 0.938575
2.97167 37.0346 89.5406 0.141608 -0.316338 0.933109
1.74978 37.0312 89.6016 -0.00614125 -0.375831 0.926622
0.49414 36.9406 89.624 0.081123 -0.37842 0.922045
-0.945462 36.779 89.6897 0.000438421 -0.282371 0.950946
-2.32398 36.6977 89.516 -0.131492 -0.305963 0.942904
-4.07313 36.7796 89.2256 -0.231693 -0.250741 0.939307
-5.04271 36.9165 88.9804 -0.278464 -0.235006 0.93123
-6.17921 37.0832 88.6766 -0.315809 -0.193192 0.927593
-7.19695 37.1682 88.3227 -0.344551 -0.18556 0.919496
-8.27102 37.1895 87.8964 -0.404434 -0.194347 0.892599
-9.32144 37.1972 87.3695 -0.439863 -0.174405 0.880955
-10.6454 37.166 86.6759 -0.468909 -0.155089 0.869522
-11.7899 37.1582 86.0167 -0.524215 -0.136177 0.840628
-13.2399 37.1289 85.0773 -0.581562 -0.109401 0.804535
-14.2739 37.0385 84.2588 -0.614577 -0.0770172 0.785088
-15.1762 36.8147 83.5302 -0.615579 -0.0812326 0.783862
-15.8952 36.5325 82.8946 -0.660335 -0.0519579 0.749171
-17.097 35.8118 81.7478 -0.680695 -0.0619327 0.729944
-18.1809 35.0713 80.727 -0.670717 -0.0205387 0.741429
-18.5416 33.7656 80.3691 -0.666342 -0.0132902 0.745509
-18.921 32.8196 80.0196 -0.66282 -0.0107189 0.748702
-19.3637 31.8157 79.6112 -0.643295 0.00246326 0.765613
-19.7705 30.9158 79.2747 -0.641892 -0.00669188 0.766679
-20.1455 29.9459 78.9339 -0.643681 -0.0222435 0.76497
-20.4399 28.9694 78.658 -0.644909 -0.00714997 0.764098
-20.8649 27.3718 78.2594 -0.637467 -0.0186046 0.770242
-21.1611 26.3383 77.9956 -0.635634 -0.0147726 0.771849
-21.493 25.4195 77.6976 -0.641841 -0.0120817 0.766688
-21.8815 24.509 77.3675 -0.644616 -0.00414694 0.764494
-22.5164 23.0886 76.8198 -0.643794 -0.00637401 0.765167
-23.5337 23.5656 75.9548 -0.654972 -0.0229967 0.755303
-23.9804 24.8437 75.5885 -0.675749 -0.00928356 0.737055
-24.2093 26.2831 75.3896 -0.673383 -0.00441568 0.73928
-24.1999 27.3765 75.4137 -0.665587 0.000137571 0.746206
-23.9858 28.8661 75.5776 -0.662508 0.0129604 0.748942
-23.6073 30.2395 75.8885 -0.662503 0.0131226 0.748944
-23.1875 31.2474 76.2423 -0.662524 0.0291481 0.748292
-22.664 32.2545 76.6414 -0.67622 0.0572624 0.734471
-21.6772 33.5531 77.4703 -0.688108 0.0391821 0.724517
-20.6271 34.4106 78.4354 -0.683268 0.0303057 0.729378
-19.7023 35.2646 79.2967 -0.688351 -0.00103082 0.725375
-19.1351 35.9454 79.8317 -0.687383 0.00193151 0.726292
-18.7133 36.847 80.2963 -0.696845 -0.0644096 0.714318
-18.2216 37.7306 80.8482 -0.684968 -0.0648024 0.725649
-17.5552 39.2073 81.6245 -0.682858 -0.0688103 0.72729
-17.1999 40.1962 81.9832 -0.690111 -0.0152912 0.72354
-16.9331 41.163 82.2636 -0.690848 -0.0234425 0.722619
-16.7142 42.1604 82.5073 -0.689761 -0.0268528 0.723539
-16.5311 43.2139 82.7196 -0.690511 -0.0252875 0.72288
-16.3027 44.2295 82.9733 -0.680155 -0.0275694 0.73255
-15.6184 45.6683 83.6636 -0.679142 -0.0289594 0.733435
-14.9793 46.5603 84.2845 -0.676802 -0.0260498 0.735704
-14.3689 47.2223 84.8429 -0.6276 -0.0162835 0.777726
-13.6936 47.7923 85.3616 -0.605549 -0.0434022 0.794622
-13.625 47.8299 85.4158 -0.604902 -0.0423423 0.795173
-14.0188 48.4948 85.1521 -0.605549 -0.0434022 0.794622
-13.0589 48.9606 85.896 -0.587647 -0.0302205 0.808553
-12.0664 49.1301 86.6223 -0.57963 -0.0344485 0.814095
-11.1095 49.1628 87.2222 -0.513981 -0.000571176 0.857799
-10.1767 49.1746 87.7771 -0.491906 -0.00985032 0.870238
-9.19781 49.1937 88.3002 -0.460665 0.0145197 0.887394
-8.16509 49.2333 88.7632 -0.339798 0.00389958 0.939844
-7.15716 49.2391 89.1018 -0.298745 -0.0184751 0.954005
-6.03593 49.2755 89.434 -0.280257 -0.0158022 0.959775
-4.89196 49.2641 89.7214 -0.173265 0.0245135 0.984539
-3.54431 49.2314 89.9538 -0.157204 0.000869083 0.987321
-2.1413 49.1878 90.1253 -0.0979729 0.0259624 0.994843
-1.10812 49.1702 90.2236 -0.0540328 0.00736806 0.997547
-0.0524967 49.1683 90.2265 0.0193103 0.0114911 0.999744
0.976569 49.1794 90.2032 0.0575975 -0.00240402 0.997659
1.97623 49.1871 90.0982 0.130077 0.00861559 0.991464
3.5739 49.1869 89.8663 0.195064 0.0215665 0.979648
4.57894 49.1843 89.6294 0.229626 0.0453876 0.97222
5.59341 49.1825 89.3405 0.301994 0.0113446 0.953242
6.61063 49.1713 89.017 0.304073 0.0101488 0.952595
7.67048 49.112 88.6616 0.348798 0.018498 0.936522
8.74678 49.1191 88.2236 0.414808 0.0215979 0.908637
9.67765 49.1868 87.7509 0.461978 0.019345 0.88667
10.7454 49.251 87.1634 0.528737 0.00483918 0.848772
11.761 49.2973 86.5308 0.536355 0.0152904 0.843736
12.7702 49.2715 85.8495 0.565932 0.0119583 0.824334
13.9575 48.9411 84.9757 0.645409 -0.00272749 0.763387
14.743 48.4603 84.2929 0.661544 0.0140371 0.749774
15.59 47.7315 83.5393 0.667933 -0.00731307 0.744185
16.2317 47.1 82.9437 0.681694 -0.00653859 0.731607
16.8933 46.5126 82.3237 0.681139 -0.005338 0.732134
17.5694 45.9252 81.6812 0.693373 -0.00660952 0.720546
18.221 44.839 81.04 0.69618 -0.00470078 0.717842
18.5768 43.9476 80.6927 0.72585 0.000831112 0.686586
18.9423 42.7592 80.2759 0.747092 0.0184054 0.664167
19.1058 40.8047 80.1363 0.72512 -0.00150112 0.688621
18.8395 39.8252 80.4232 0.719328 0.00719571 0.694632
18.4293 38.9058 80.8453 0.701373 -0.000149763 0.712795
17.8053 38.2134 81.4597 0.691738 -0.0171665 0.721595
16.5678 37.5667 82.5529 0.645644 -0.0341069 0.762504
15.7703 37.4487 83.1809 0.619126 -0.0421699 0.784159
14.6408 37.3887 84.0577 0.609808 -0.0431157 0.791376
13.825 37.3251 84.6769 0.566462 -0.0820644 0.819991
12.6845 37.0754 85.4324 0.558599 -0.0860508 0.824962
11.6175 36.8104 86.0385 0.488034 -0.112467 0.865545
10.0093 36.4837 86.8939 0.467136 -0.155772 0.870343
9.07327 36.3087 87.3586 0.451463 -0.145365 0.880287
7.92419 36.1862 87.8316 0.325776 -0.231875 0.915453
6.92554 36.1268 88.1817 0.320681 -0.268528 0.908325
5.43371 36.128 88.6721 0.264603 -0.28213 0.921617
3.79298 36.2856 89.1381 0.216073 -0.284918 0.93345
2.40191 36.33 89.3325 0.0335351 -0.290382 0.955934
1.3438 36.3161 89.3221 0.00216499 -0.286663 0.957805
0.347114 36.2088 89.3607 0.0896576 -0.316851 0.944228
-0.785898 36.0574 89.4174 0.0503571 -0.346155 0.935521
-2.19143 35.956 89.2875 -0.119667 -0.323791 0.93853
-3.44447 35.9754 89.115 -0.168696 -0.299599 0.938537
-4.45285 36.0989 88.9296 -0.2429 -0.285861 0.92627
-5.59496 36.2494 88.6417 -0.272412 -0.252178 0.928445
-6.7005 36.4016 88.3644 -0.313883 -0.174486 0.929121
-7.64193 36.4565 87.9757 -0.362776 -0.215679 0.906573
-8.84791 36.4671 87.4607 -0.438579 -0.174876 0.881503
-9.76369 36.441 87.0037 -0.436946 -0.172284 0.882834
-10.972 36.4053 86.356 -0.483714 -0.163393 0.859838
-12.2584 36.3981 85.6007 -0.535476 -0.142361 0.832337
-13.7684 36.3278 84.5841 -0.581491 -0.111702 0.804207
-15.0173 36.0579 83.5723 -0.615245 -0.0874151 0.783472
-15.8603 35.737 82.8699 -0.639388 -0.0681518 0.765204
-16.6326 35.2873 82.1364 -0.676441 -0.0447928 0.734906
-17.319 34.6908 81.4937 -0.668049 -0.0239742 0.743723
-17.9037 33.6406 80.94 -0.668133 -0.0172466 0.743842
-18.3241 32.6675 80.5449 -0.661929 -0.0156168 0.749392
-18.8605 31.4181 80.0356 -0.652694 -0.00897525 0.757337
-19.4516 30.12 79.5223 -0.640968 -0.0185119 0.767344
-19.7728 29.1608 79.2247 -0.643818 -0.0211833 0.764885
-20.0219 28.2177 78.9899 -0.644144 -0.0204008 0.764632
-20.3901 26.8634 78.6432 -0.641589 -0.0174746 0.766834
-20.7893 25.5605 78.288 -0.638454 -0.0195923 0.769388
-21.1344 24.6572 77.9956 -0.643024 -0.00315528 0.76584
-21.7 23.3808 77.5118 -0.641726 -0.0115792 0.766823
-22.1201 22.4423 77.1393 -0.646461 -0.0208072 0.762639
-22.6524 20.8744 76.6331 -0.649678 -0.0276739 0.759698
-23.2544 21.3365 76.128 -0.653033 -0.0221418 0.757006
-23.6919 22.3835 75.7816 -0.654643 -0.0234737 0.755574
-24.3941 24.1139 75.1932 -0.675481 -0.0206902 0.737087
-24.7228 25.6141 74.9181 -0.675158 -0.00931607 0.737592
-24.7903 26.727 74.8708 -0.669672 -0.0118193 0.742563
-24.6573 28.4454 74.9907 -0.662348 0.0110247 0.749111
-24.3166 29.9941 75.266 -0.661338 0.0131444 0.749973
-23.9346 31.096 75.5848 -0.662064 0.0126925 0.74934
-23.5071 31.9804 75.914 -0.659765 0.0491949 0.74984
-22.7757 33.2803 76.4593 -0.657634 0.062456 0.750698
-21.8942 34.3171 77.2214 -0.688789 0.0407064 0.723792
-20.6285 35.2141 78.3322 -0.71142 0.119215 0.691791
-19.7776 36.2454 79.121 -0.745084 0.0973276 0.659819
-19.3315 37.008 79.6247 -0.760058 -0.00822579 0.649538
-18.7907 37.9507 80.2388 -0.750392 -0.0214611 0.660356
-18.1911 39.1815 80.9507 -0.727654 -0.0232188 0.685551
-17.8438 40.123 81.3692 -0.709185 -0.0269759 0.703819
-17.4279 41.5019 81.8013 -0.690954 -0.025031 0.722461
-17.2052 42.5694 82.0541 -0.691568 -0.0231598 0.721927
-17.0213 43.7228 82.2685 -0.702018 -0.00642349 0.711875
-16.7536 44.7887 82.5192 -0.716314 -0.00465954 0.697441
-16.2296 45.9312 83.1077 -0.702697 -0.0254333 0.710269
-15.4889 46.994 83.831 -0.677176 -0.0259713 0.735362
-14.8031 47.7981 84.4869 -0.678511 -0.00440804 0.734512
-14.3859 48.1811 84.8542 -0.633805 -0.0177495 0.772054
-14.7984 48.7975 84.4837 -0.661027 0.00850366 0.750314
-13.7551 49.5531 85.3974 -0.662775 0.00955814 0.748753
-12.9521 49.8308 85.9895 -0.585539 0.0120182 0.810555
-11.6556 49.9237 86.8964 -0.533938 0.0163231 0.844828
-10.6955 49.932 87.4676 -0.510703 0.00146269 0.859756
-9.68854 49.9497 88.0216 -0.472012 0.0199898 0.881365
-8.80029 49.9627 88.4918 -0.413884 0.0288253 0.907975
-7.76784 50.0071 88.8785 -0.334803 0.0204383 0.941949
-6.57536 50.0213 89.2804 -0.285975 0.00450768 0.958211
-5.40992 50.024 89.6027 -0.194365 0.0491049 0.979484
-4.25036 50.0064 89.8112 -0.169889 0.0392452 0.984677
-2.97788 49.9738 90.0239 -0.129065 0.0288565 0.99067
-1.85735 49.9425 90.1349 -0.0939682 0.0189714 0.995394
-0.780647 49.9306 90.2272 -0.0178642 0.0376366 0.998428
0.270317 49.9371 90.2085 0.0230192 0.0270778 0.999368
1.28903 49.9516 90.1783 0.0888995 0.0316952 0.994644
2.28289 49.9556 90.0486 0.13355 0.0202822 0.990834
3.283 49.9522 89.9067 0.194151 0.0251648 0.979902
4.28819 49.9469 89.6699 0.230305 0.0117764 0.973047
5.30163 49.9513 89.4244 0.276684 0.0193376 0.960355
6.29824 49.9544 89.1082 0.304034 0.0108053 0.9526
7.26837 49.9188 88.7938 0.352532 0.0272748 0.935115
8.80596 49.8831 88.1729 0.387475 0.0295501 0.921313
9.8286 49.9592 87.6554 0.461978 0.019345 0.88667
11.1055 50.0291 86.9345 0.536705 0.0150656 0.843519
12.0532 50.0511 86.3183 0.544652 0.0254227 0.838277
12.9767 50.0423 85.6903 0.56505 0.0190601 0.824836
14.3052 49.6541 84.6565 0.661668 0.00864635 0.74973
15.2846 48.9671 83.8048 0.662307 0.0137333 0.749107
15.9836 48.3439 83.1859 0.674602 0.00204568 0.738104
16.7567 47.5271 82.4578 0.682311 -0.00557485 0.731039
17.4761 46.9479 81.7779 0.692525 -0.00486744 0.721378
18.1506 46.3652 81.1237 0.696155 -0.00531042 0.717872
18.6158 45.5313 80.6553 0.743753 -0.00503386 0.668435
19.1109 44.0782 80.0783 0.751234 -0.00676413 0.659925
19.4114 43.1547 79.7364 0.747743 0.0198806 0.663393
19.7443 41.4065 79.4593 0.734874 0.0159503 0.677721
19.4895 39.9628 79.7464 0.722045 0.00693733 0.691807
19.0386 38.652 80.2263 0.719472 0.00522025 0.694502
18.4559 37.8165 80.8187 0.701587 0.00117442 0.712581
17.7917 37.2774 81.4721 0.684666 0.00990115 0.728467
16.9063 36.8561 82.2479 0.638581 -0.0220672 0.76873
15.8548 36.694 83.0738 0.618983 -0.0414894 0.784308
14.7535 36.6611 83.9329 0.612012 -0.0382876 0.789919
13.3181 36.5144 84.9469 0.545938 -0.0657561 0.835219
11.9227 36.1211 85.7765 0.492047 -0.113803 0.863093
11.0201 35.9109 86.2494 0.480031 -0.134046 0.866949
9.50273 35.631 87.0289 0.462127 -0.134712 0.876507
8.34294 35.4583 87.5287 0.406594 -0.182916 0.894913
7.19619 35.3722 87.9052 0.30186 -0.193678 0.933438
6.10276 35.3733 88.2493 0.299692 -0.181665 0.936496
5.06471 35.4132 88.5334 0.23666 -0.301625 0.923576
3.92554 35.5342 88.8381 0.182144 -0.29007 0.938077
2.8533 35.6123 89.0988 0.0968892 -0.314266 0.939621
1.83638 35.6142 89.1109 0.0142618 -0.277942 0.960483
0.794913 35.525 89.106 0.0193775 -0.276656 0.960774
-0.268611 35.3774 89.1399 0.0467612 -0.343085 0.936748
-1.43689 35.2598 89.1032 0.0146731 -0.370079 0.928866
-2.64757 35.2083 88.9708 -0.122585 -0.316691 0.940538
-3.6619 35.2488 88.8639 -0.166726 -0.269343 0.946621
-4.72024 35.3996 88.6523 -0.23216 -0.253227 0.939112
-5.75687 35.5058 88.3983 -0.249392 -0.220143 0.942978
-6.95644 35.6663 88.1329 -0.237909 -0.215671 0.94704
-7.93924 35.7302 87.7385 -0.387305 -0.131694 0.912497
-9.31015 35.7176 87.0878 -0.436403 -0.169657 0.883611
-10.2145 35.6667 86.6299 -0.433648 -0.166155 0.88561
-11.3335 35.6474 86.0193 -0.488091 -0.124823 0.863819
-12.2264 35.6423 85.4987 -0.531507 -0.12731 0.837219
-13.2053 35.6076 84.8527 -0.54405 -0.114603 0.831189
-14.3324 35.4949 84.045 -0.598565 -0.108721 0.793146
-15.2208 35.2446 83.3223 -0.616125 -0.0863788 0.782889
-15.9944 34.8523 82.6657 -0.621374 -0.102156 0.776764
-16.6743 34.2746 82.0263 -0.631976 -0.108492 0.767356
-17.3534 33.2525 81.3684 -0.604107 -0.0649412 0.794246
-17.7638 32.3387 80.9981 -0.611082 -0.0417027 0.790366
-18.3324 31.0348 80.4672 -0.61884 -0.0282041 0.784727
-18.8091 30.0925 80.0582 -0.636333 -0.0202519 0.771125
-19.2806 28.7219 79.6271 -0.643581 -0.0203288 0.765108
-19.5989 27.486 79.3268 -0.644161 -0.0207217 0.76461
-19.917 26.3292 79.0269 -0.641765 -0.0173804 0.766689
-20.2944 25.1169 78.6833 -0.637351 -0.0254582 0.770153
-20.6784 24.1113 78.3574 -0.625281 -0.0080855 0.780357
-21.2557 22.8426 77.8701 -0.621683 -0.0200868 0.782647
-21.7058 21.8464 77.471 -0.641717 -0.0225097 0.766601
-22.1807 20.2476 77.0103 -0.646505 -0.031547 0.762251
-22.3226 19.1041 76.849 -0.64426 -0.0271054 0.764326
-22.1631 17.8981 76.9405 -0.646047 -0.0282575 0.76276
-21.7787 16.7097 77.2075 -0.638721 -0.0450357 0.768119
-21.3179 15.6068 77.5213 -0.633451 -0.0343056 0.772873
-20.9636 14.3964 77.7499 -0.617459 -0.0383636 0.785667
-20.8966 13.2273 77.7574 -0.613064 -0.0256835 0.7896
-21.1456 12.0858 77.5223 -0.608412 -0.0216257 0.793283
-21.7024 11.0062 77.0776 -0.621492 -0.0178291 0.782999
-22.3765 10.0723 76.4976 -0.636045 -0.0202112 0.771387
-23.2587 9.96041 75.7628 -0.649584 -0.0217865 0.759947
-24.1018 10.4039 75.0446 -0.657081 -0.0220145 0.753478
-24.7679 11.0536 74.4673 -0.675518 -0.0168555 0.73715
-25.242 12.0357 74.0562 -0.676127 -0.0174387 0.736579
-25.2791 13.0698 74.0464 -0.672659 -0.0146517 0.739788
-25.0214 14.2579 74.3244 -0.667639 -0.0312381 0.74383
-24.5525 15.5018 74.7903 -0.662456 -0.0206267 0.748817
-24.1374 16.5702 75.1927 -0.658857 -0.0250542 0.751824
-23.7402 17.7535 75.5831 -0.656728 -0.0273645 0.753629
-23.5143 19.3258 75.8417 -0.654141 -0.0278082 0.75585
-23.5887 20.3474 75.8092 -0.654997 -0.0237992 0.755257
-23.9151 21.2926 75.5562 -0.659728 -0.0213197 0.751153
-24.4758 22.6543 75.0828 -0.669317 -0.0105992 0.742901
-24.9321 23.8045 74.6916 -0.676651 -0.0171248 0.736094
-25.2365 25.0112 74.4405 -0.665141 -0.0152601 0.746562
-25.3497 26.1934 74.3663 -0.662341 -0.0150823 0.749039
-25.3329 27.5378 74.4003 -0.668047 0.0021701 0.743951
-25.2112 28.7214 74.4992 -0.66097 0.0103352 0.750341
-24.9995 29.7839 74.6687 -0.660739 0.0137268 0.75049
-24.6675 30.8433 74.9407 -0.661725 0.0140807 0.749613
-24.2848 31.7896 75.2348 -0.663531 0.0461156 0.746726
-23.6397 33.0318 75.7232 -0.657503 0.0623489 0.75082
-23.0829 33.946 76.1263 -0.658556 0.0709206 0.749182
-22.4597 34.7688 76.6582 -0.685148 0.0903688 0.721416
-21.5268 35.394 77.4259 -0.686145 0.138154 0.714223
-20.816 35.9135 78.0267 -0.730556 0.0990483 0.67563
-20.1861 36.705 78.6 -0.748257 0.0494445 0.659986
-19.5347 37.894 79.395 -0.765681 -0.00817403 0.642728
-18.9791 38.8645 80.0782 -0.753908 -0.0401393 0.655753
-18.4589 40.0566 80.7065 -0.730789 -0.0370918 0.681595
-18.1061 41.1239 81.133 -0.74003 -0.0146594 0.672073
-17.8221 42.2396 81.4491 -0.737631 -8.99809e-05 0.675199
-17.6635 43.2547 81.6245 -0.738493 -0.00687363 0.674193
-17.473 44.3845 81.8053 -0.708083 0.0109871 0.706044
-16.9295 45.9659 82.3698 -0.723542 -0.025241 0.689803
-16.4351 46.8278 82.9246 -0.717995 -0.0207863 0.695638
-15.9239 47.5206 83.4369 -0.682137 -0.0135743 0.731098
-15.358 48.1993 83.9767 -0.678511 -0.00440804 0.734512
-14.8418 48.7601 84.4459 -0.668081 0.0064479 0.743997
-15.2266 49.3679 84.0905 -0.671009 0.00891075 0.74136
-15.8415 48.6587 83.5322 -0.678682 -0.00359675 0.734364
-16.4248 47.9314 82.9531 -0.712811 -0.0114421 0.701262
-17.167 46.849 82.1601 -0.722381 -0.0307213 0.690813
-17.6965 45.8056 81.5497 -0.727872 -0.00974257 0.685276
-18.0915 44.0727 81.1679 -0.721307 0.0129635 0.692495
-18.2354 42.942 80.9952 -0.73968 -0.0168382 0.672728
-18.5857 41.3264 80.5883 -0.751206 -0.00754449 0.659977
-19.0725 40.0098 80.0234 -0.768151 -0.011361 0.639847
-19.5295 39.0578 79.4318 -0.783796 -0.014774 0.620843
-19.9864 38.3711 78.8413 -0.781966 -0.0136367 0.623171
-20.473 37.4927 78.2303 -0.751439 0.035401 0.657986
-20.9571 36.6855 77.7619 -0.727912 0.0698383 0.681477
-21.7765 36.0409 77.0643 -0.681289 0.136544 0.719165
-22.5743 35.632 76.3881 -0.681694 0.134317 0.719202
-23.3251 34.7109 75.8483 -0.682018 0.0911716 0.724333
-23.8304 33.9292 75.4713 -0.656433 0.0702926 0.751102
-24.4182 32.8854 75.047 -0.665296 0.0538043 0.74461
-24.8484 31.9743 74.7214 -0.664643 0.0474043 0.745656
-25.3799 30.6007 74.318 -0.661914 0.0143883 0.74944
-25.6758 29.5252 74.0728 -0.674995 0.00193179 0.737813
-25.8649 28.1709 73.9025 -0.677263 -0.000206181 0.735741
-25.924 26.8047 73.8596 -0.671539 -0.00797016 0.740921
-25.9027 25.6724 73.8605 -0.665841 -0.0167507 0.745903
-25.7697 24.4497 73.954 -0.664551 -0.0142308 0.747106
-25.4826 23.5044 74.1922 -0.664282 -0.0121778 0.747382
-25.1278 22.5911 74.4945 -0.669189 -0.0104796 0.743018
-24.5983 21.3221 74.9466 -0.666152 -0.0202251 0.745542
-24.2817 20.3065 75.2013 -0.668761 -0.0248777 0.74304
-24.1007 19.112 75.318 -0.660085 -0.0298239 0.750599
-24.3078 17.8984 75.0922 -0.658136 -0.0268129 0.752421
-24.7047 16.6883 74.6972 -0.660193 -0.0294536 0.750518
-25.1336 15.6177 74.2789 -0.661334 -0.024711 0.74967
-25.5083 14.6686 73.9002 -0.675897 -0.0297456 0.736395
-25.8103 13.7039 73.5829 -0.67229 -0.0241172 0.739847
-25.8809 12.2954 73.4816 -0.667599 -0.0221189 0.744193
-25.5308 10.9882 73.7661 -0.676163 -0.0169484 0.736557
-24.7999 10.0848 74.4172 -0.676236 -0.0162202 0.736507
-23.6049 9.24514 75.4435 -0.660653 -0.0232864 0.750329
-22.3848 8.99673 76.4576 -0.632007 -0.0193748 0.774701
-21.8377 9.69347 76.9282 -0.633897 -0.0243736 0.773033
-20.9718 10.9545 77.6375 -0.612642 -0.00385674 0.790351
-20.3445 12.4796 78.156 -0.606473 -0.0267678 0.794621
-20.2227 13.5353 78.2868 -0.596132 -0.0193802 0.80255
-20.3505 14.601 78.2318 -0.605459 -0.0307669 0.795281
-20.793 15.9249 77.9412 -0.599449 -0.028126 0.799867
-21.425 17.5436 77.5432 -0.597052 -0.0394281 0.801217
-21.6422 18.5991 77.4012 -0.617267 -0.0194957 0.786511
-21.5588 20.2109 77.5331 -0.631598 -0.0369121 0.774213
-21.289 21.2315 77.798 -0.611082 -0.0373336 0.790653
-20.5582 22.7701 78.3956 -0.603314 -0.0228419 0.797177
-20.0425 23.9863 78.8653 -0.621072 -0.0255253 0.783123
-19.6851 24.9726 79.1823 -0.636932 -0.0259225 0.770484
-19.2203 26.5672 79.6057 -0.607935 -0.0307448 0.793388
-18.9099 27.7119 79.8971 -0.618972 -0.0355593 0.784565
-18.581 28.9957 80.203 -0.624526 -0.0330935 0.780267
-18.1287 30.0445 80.6118 -0.625744 -0.0223739 0.779667
-17.6834 30.8743 80.9764 -0.61786 -0.0105449 0.786215
-17.2437 31.8478 81.3715 -0.603989 -0.0337479 0.796278
-16.8209 32.7462 81.7312 -0.603994 -0.0524286 0.795081
-16.1708 33.6681 82.3551 -0.629395 -0.109494 0.769324
-15.52 34.2671 82.9682 -0.621374 -0.102156 0.776764
-14.5521 34.6745 83.7782 -0.590702 -0.100561 0.800109
-13.6182 34.8153 84.4591 -0.57218 -0.121712 0.810981
-12.6716 34.8757 85.0996 -0.530304 -0.127652 0.837945
-11.7371 34.8938 85.6759 -0.51661 -0.140044 0.844688
-10.6884 34.8859 86.2574 -0.429049 -0.163481 0.888364
-9.76508 34.9416 86.7136 -0.432797 -0.166771 0.885914
-8.80982 35.0015 87.1969 -0.434065 -0.16922 0.884843
-7.70226 34.9633 87.7236 -0.40453 -0.156546 0.900603
-6.5695 34.8598 88.046 -0.242251 -0.203054 0.948621
-5.58563 34.7023 88.2702 -0.225725 -0.192406 0.954745
-4.59394 34.623 88.473 -0.229265 -0.243981 0.942229
-3.29617 34.4918 88.6837 -0.109652 -0.272196 0.955951
-2.28167 34.4723 88.7875 -0.113866 -0.231324 0.964655
-1.06207 34.5594 88.8485 -0.011914 -0.204717 0.978749
0.0479052 34.6771 88.8862 0.00676084 -0.215245 0.976307
1.24429 34.825 88.8962 0.0201642 -0.229527 0.973093
2.34712 34.9176 88.9017 0.0142618 -0.277942 0.960483
3.48114 34.8297 88.7289 0.146544 -0.245824 0.958102
4.8213 34.6762 88.429 0.239851 -0.208154 0.948231
6.22826 34.5978 88.0675 0.267044 -0.179437 0.945982
7.18139 34.6121 87.7597 0.308012 -0.169675 0.936125
8.66186 34.7488 87.2398 0.385855 -0.19891 0.900793
9.59317 34.8861 86.8701 0.424257 -0.154304 0.890701
10.4806 35.0378 86.412 0.479148 -0.134704 0.867336
11.3959 35.2268 85.9355 0.480542 -0.133551 0.866743
12.5445 35.5485 85.3396 0.485879 -0.122383 0.865379
13.482 35.8207 84.7806 0.543946 -0.07198 0.836027
14.7664 35.9306 83.8872 0.613459 -0.0413175 0.788632
15.5605 35.9433 83.2655 0.616254 -0.0440418 0.786315
16.5908 35.999 82.4532 0.623637 -0.0430208 0.780529
17.4549 36.2427 81.7725 0.640813 -0.0229611 0.766882
18.248 36.6884 81.0276 0.698148 0.0065784 0.715918
18.9295 37.2321 80.3565 0.717562 0.0138999 0.695817
19.4188 38.02 79.8237 0.732563 -0.00844654 0.680639
19.8833 39.2058 79.3384 0.757444 -0.00455716 0.651865
20.2103 40.6833 78.91 0.774862 0.0128555 0.632
20.2465 41.7397 78.8171 0.782505 0.0321022 0.62181
19.9329 43.3287 79.13 0.775922 0.0221284 0.630244
19.5869 44.392 79.548 0.748382 -0.0146407 0.663106
19.1279 45.8236 80.0877 0.74563 -0.00492972 0.666335
18.7013 46.8064 80.5637 0.743242 0.0184534 0.668631
18.1107 47.3865 81.1528 0.714148 0.032309 0.699249
17.3276 47.9276 81.9266 0.703095 0.0140039 0.710551
16.7349 48.5965 82.484 0.684854 0.000750683 0.728679
15.7167 49.549 83.4092 0.666119 0.0150465 0.745692
14.957 50.1339 84.0786 0.662074 0.000127698 0.749437
14.002 50.7083 84.921 0.6257 0.0221141 0.778094
12.7027 50.7949 85.86 0.575108 0.0315879 0.817278
11.5905 50.8033 86.596 0.544875 0.0244936 0.838159
10.7475 50.7555 87.1455 0.514099 0.0303494 0.856411
9.43486 50.6786 87.8486 0.464039 0.0149806 0.88568
8.49036 50.636 88.2815 0.387475 0.0295501 0.921313
7.48834 50.6582 88.6893 0.352532 0.0272748 0.935115
6.48497 50.7241 89.0398 0.316881 0.0243471 0.947969
5.46682 50.7179 89.3579 0.251717 0.0296472 0.967347
4.44662 50.7097 89.6232 0.240321 0.0209774 0.970371
3.42801 50.7151 89.8523 0.159304 0.0407071 0.98639
2.4326 50.7217 90.0128 0.145769 0.0305335 0.988706
0.574279 50.709 90.1784 0.0482155 0.0481684 0.997674
-0.453764 50.695 90.2039 -0.0131763 0.0422733 0.998289
-1.50916 50.7 90.1485 -0.0528661 0.053451 0.99717
-2.59865 50.727 90.0498 -0.12613 0.0360194 0.990693
-3.72595 50.7522 89.8676 -0.158251 0.0524824 0.986003
-4.88349 50.7625 89.6688 -0.191412 0.0545181 0.979712
-5.97717 50.7585 89.4331 -0.210616 0.0677435 0.975219
-6.95167 50.7442 89.1638 -0.317264 0.0225592 0.947196
-8.58905 50.7365 88.545 -0.358088 0.0378776 0.932909
-9.83145 50.7 87.925 -0.47038 0.0250616 0.882107
-10.7472 50.6909 87.4355 -0.491057 0.0131045 0.870664
-11.6303 50.6947 86.8828 -0.554423 0.0341544 0.831533
-12.4997 50.6823 86.3019 -0.570299 0.0238841 0.820845
-13.3134 50.5826 85.7027 -0.624029 0.0452304 0.78009
-14.1589 50.2277 85.0292 -0.66153 0.0110603 0.749835
-15.0245 49.5414 84.2682 -0.666789 0.00931921 0.745174
-15.4754 50.1212 83.8661 -0.666943 -0.00114533 0.74508
-16.1515 49.3043 83.2491 -0.689566 -0.00444053 0.72379
-16.7734 48.5058 82.6098 -0.710934 -0.0148389 0.703101
-17.4074 47.6925 81.9463 -0.713766 -0.0146763 0.700223
-18.013 46.6163 81.2404 -0.735608 -0.0302085 0.676734
-18.433 45.4004 80.7919 -0.719571 0.00862388 0.694365
-18.6769 43.6926 80.5281 -0.749839 -0.0143247 0.661147
-18.7935 42.5416 80.3648 -0.74605 -0.006741 0.665679
-19.0781 41.4716 80.0224 -0.757891 -0.00545944 0.652343
-19.6599 39.985 79.2893 -0.783233 -0.0149689 0.621548
-20.1277 39.2339 78.6825 -0.781278 -0.0128536 0.624051
-20.6782 38.4463 77.9754 -0.781613 -0.0142335 0.623601
-21.1037 37.5314 77.5363 -0.790198 0.0695866 0.60888
-21.8769 36.7607 76.8171 -0.673842 0.183989 0.715543
-22.7335 36.5059 76.0724 -0.636489 0.145296 0.754881
-23.5685 35.5094 75.524 -0.631127 0.104624 0.768591
-24.1493 34.5942 75.1303 -0.656668 0.0746782 0.75046
-24.6788 33.701 74.749 -0.662543 0.0619117 0.746453
-25.1129 32.8091 74.4343 -0.661384 0.0525016 0.748175
-25.5068 31.9264 74.1409 -0.660064 0.0476932 0.749693
-26.0872 30.2821 73.6978 -0.668412 0.00819348 0.743685
-26.2983 29.2641 73.505 -0.674664 -0.00185183 0.738121
-26.4375 28.147 73.3754 -0.676616 0.00743721 0.736258
-26.4795 26.9421 73.3503 -0.686682 0.000253426 0.72694
-26.4873 25.1802 73.3236 -0.684932 -0.00995563 0.728537
-26.3447 24.1078 73.4373 -0.663992 -0.0132506 0.747622
-25.8231 22.6378 73.8765 -0.665311 -0.0110469 0.746484
-25.3354 21.4803 74.2906 -0.671858 -0.0256451 0.740229
-24.8324 20.0605 74.6922 -0.671609 -0.0288977 0.740342
-24.6982 19.0236 74.7802 -0.673005 -0.0224526 0.739297
-24.8716 18.0078 74.5914 -0.673267 -0.0241963 0.739001
-25.2074 16.9708 74.2529 -0.675662 -0.0201395 0.736936
-25.5967 16.0602 73.8696 -0.676368 -0.0231509 0.736199
-25.9618 15.154 73.5036 -0.676347 -0.0267408 0.736093
-26.3092 14.2624 73.1477 -0.67235 -0.024255 0.739791
-26.504 13.1842 72.9468 -0.668477 -0.0173591 0.74353
-26.4533 12.0418 72.9607 -0.667521 -0.0220618 0.744264
-26.1807 10.8549 73.1683 -0.671923 -0.0216401 0.740294
-25.6184 9.95238 73.6627 -0.676172 -0.0164608 0.736559
-25.0069 9.28852 74.2096 -0.668763 -0.0208303 0.743103
-23.9623 8.61814 75.1106 -0.660798 -0.0218 0.750247
-23.1603 8.05442 75.798 -0.659473 -0.0221589 0.751401
-22.2678 7.94953 76.5356 -0.631332 -0.0131755 0.775401
-21.7517 8.68426 76.9652 -0.630861 -0.0191362 0.775622
-21.2239 9.42011 77.4123 -0.618429 -0.0220851 0.78553
-20.3299 10.7324 78.133 -0.603334 -0.00399822 0.797432
-19.7921 11.877 78.5514 -0.602695 -0.0214414 0.797664
-19.5468 12.9289 78.7742 -0.595164 -0.019393 0.803268
-19.6251 14.098 78.7451 -0.584967 -0.0490196 0.809574
-19.9264 15.3846 78.5839 -0.603656 -0.026598 0.796796
-20.3667 16.4899 78.2808 -0.599327 -0.0294815 0.799903
-20.7575 17.5158 78.0407 -0.598187 -0.0442777 0.800132
-21.0241 19.0771 77.8996 -0.618168 -0.0213079 0.785757
-20.8637 20.2721 78.0807 -0.615876 -0.0413518 0.786757
-20.5391 21.319 78.3684 -0.599597 -0.021989 0.799988
-20.0534 22.3355 78.7654 -0.610036 -0.0333547 0.791556
-19.6665 23.2001 79.111 -0.594625 -0.0485992 0.802533
-19.2381 24.2628 79.492 -0.595134 -0.0415537 0.802527
-18.9332 25.2401 79.7626 -0.596975 -0.0348657 0.801501
-18.6801 26.206 80.005 -0.601509 -0.0385075 0.79792
-18.3753 27.2532 80.292 -0.615394 -0.0482661 0.786719
-18.0975 28.5071 80.5652 -0.611054 -0.0362357 0.790738
-17.4063 30.0219 81.1816 -0.616405 -0.0320339 0.786716
-16.8673 30.963 81.6172 -0.593251 -0.0546374 0.802802
-16.4988 31.9037 81.9394 -0.609175 -0.0314575 0.792407
-15.8241 32.9441 82.5333 -0.631454 -0.0880155 0.770064
-15.1135 33.6464 83.2132 -0.623742 -0.10185 0.774873
-14.0301 33.9981 84.055 -0.562022 -0.106331 0.820183
-13.0847 34.094 84.7173 -0.543645 -0.132165 0.828376
-12.1433 34.1404 85.3025 -0.51687 -0.141287 0.844324
-11.2582 34.1284 85.8399 -0.488889 -0.158226 0.857199
-10.2251 34.1426 86.3458 -0.430404 -0.153833 0.889431
-9.28089 34.2452 86.821 -0.435086 -0.15568 0.886817
-8.24726 34.2607 87.3332 -0.429759 -0.15866 0.888884
-7.03975 34.1294 87.7789 -0.270785 -0.209685 0.938896
-5.76051 33.9416 88.0747 -0.226025 -0.195513 0.954037
-4.37206 33.835 88.3497 -0.209549 -0.189512 0.959198
-3.08125 33.7542 88.5493 -0.132715 -0.177305 0.975155
-1.49256 33.7502 88.6728 -0.0337656 -0.219007 0.975139
-0.43949 33.8585 88.7091 0.00500115 -0.214947 0.976419
0.610532 33.9736 88.7089 0.0250079 -0.223454 0.974394
1.61241 34.0877 88.7138 0.0209733 -0.230166 0.972925
3.28756 34.1124 88.5748 0.140835 -0.236141 0.961459
4.31842 33.9692 88.3842 0.147227 -0.232842 0.961302
5.42658 33.8159 88.1015 0.227129 -0.193914 0.954364
7.22788 33.8479 87.6056 0.319811 -0.183435 0.929318
8.22508 33.912 87.2572 0.357127 -0.183165 0.915531
9.6204 34.1232 86.7107 0.385874 -0.169927 0.906762
10.6683 34.3162 86.1995 0.479643 -0.114467 0.869963
11.6383 34.5104 85.6905 0.479818 -0.134247 0.867036
12.8282 34.891 85.0937 0.478794 -0.124509 0.869025
13.7246 35.1434 84.5627 0.543151 -0.0759926 0.836174
15.1893 35.207 83.5163 0.616382 -0.0370621 0.786574
16.0041 35.1937 82.8776 0.614724 -0.0359394 0.78792
16.803 35.2599 82.2491 0.621315 -0.0265159 0.783112
17.666 35.4937 81.569 0.630972 -0.0272677 0.77526
18.5781 35.9503 80.7156 0.69841 0.00933621 0.715632
19.2794 36.5985 80.0043 0.726535 0.0342177 0.686277
19.7627 37.3413 79.4484 0.734039 0.0196672 0.678473
20.2518 38.5612 78.8794 0.778063 0.00682188 0.628113
20.566 39.7405 78.4872 0.78053 -0.000108192 0.625118
20.7668 41.1555 78.1953 0.782632 0.0334814 0.621583
20.6526 42.5108 78.2687 0.778013 0.019345 0.62782
20.3567 43.8215 78.6106 0.771836 0.00925851 0.635751
20.0137 44.8129 79.0437 0.78051 -0.00635146 0.625111
19.7173 45.8219 79.4215 0.769422 0.00610875 0.638068
19.2683 47.0379 79.9209 0.749989 0.00564374 0.661425
18.6993 47.8404 80.5207 0.737533 0.0282093 0.674721
18.0653 48.3159 81.1559 0.717514 0.0234607 0.696071
17.2544 49.0183 81.9717 0.713773 0.0182854 0.700139
16.6963 49.6986 82.5226 0.699357 0.00783068 0.714369
15.9821 50.2426 83.167 0.665932 -0.00471585 0.745997
14.9264 51.2137 84.1068 0.66116 -0.00103858 0.750244
13.5232 51.5398 85.2346 0.591441 0.0083739 0.806299
12.5749 51.531 85.9252 0.579254 0.0180577 0.814827
11.5582 51.5275 86.5966 0.543347 0.0162652 0.839316
10.6997 51.4919 87.1428 0.489438 0.0313848 0.871451
9.73914 51.4682 87.6717 0.470834 0.0243086 0.881854
8.65532 51.4065 88.1785 0.399274 0.0374215 0.916067
7.69221 51.39 88.5881 0.355582 0.0307194 0.933807
6.10583 51.4962 89.142 0.330749 0.0265277 0.943287
4.85491 51.4734 89.4945 0.252337 0.0189344 0.967454
3.87545 51.4751 89.7481 0.216038 0.0298858 0.975208
2.86577 51.4813 89.9127 0.158616 0.022137 0.987092
1.85544 51.4878 90.0743 0.110777 0.0400407 0.99174
0.850107 51.4814 90.1277 0.0516784 0.0473784 0.997539
-0.149593 51.4669 90.1752 -0.0131763 0.0422733 0.998289
-1.16767 51.4641 90.1257 -0.048709 0.0549608 0.9973
-2.21755 51.483 90.0685 -0.0785994 0.0630152 0.994515
-3.29423 51.5002 89.8995 -0.157581 0.0289968 0.98708
-4.41109 51.5074 89.7204 -0.174876 0.0385538 0.983635
-5.53161 51.5017 89.4819 -0.211169 0.0324328 0.976911
-6.6156 51.4923 89.2485 -0.246457 0.0538246 0.96671
-7.62156 51.4847 88.8862 -0.35147 0.0163329 0.936055
-8.65093 51.4672 88.5 -0.377807 0.032231 0.924763
-9.78456 51.4496 87.9385 -0.472119 0.000909482 0.881534
-10.8105 51.4453 87.3882 -0.486474 0.0107475 0.873431
-11.7324 51.4545 86.7972 -0.556235 -0.0129464 0.830923
-12.6469 51.4509 86.1833 -0.574034 0.0022546 0.818445
-13.5838 51.3514 85.4471 -0.625372 -0.00518843 0.780308
-14.38 51.0448 84.8206 -0.642774 0.0292162 0.765013
-15.1434 50.4215 84.1592 -0.662446 0.00430475 0.749089
-15.4321 51.2136 83.8957 -0.662808 -0.000857865 0.748739
-16.1605 50.4188 83.2466 -0.689191 -0.00288934 0.724157
-16.8012 49.5888 82.6007 -0.707845 -0.0044795 0.706353
-17.4201 48.808 81.9609 -0.733075 -0.0177871 0.679138
-17.9048 48.0976 81.3845 -0.751317 -0.00691607 0.659811
-18.6183 46.8834 80.5826 -0.751397 0.00356098 0.659835
-18.8996 45.8998 80.2648 -0.758055 0.00759045 0.652147
-19.1653 44.1059 79.9578 -0.765221 -0.00575283 0.64374
-19.2726 43.0785 79.8136 -0.761793 -0.00664415 0.647786
-19.5136 41.9137 79.5194 -0.776899 -0.01208 0.628991
-19.836 40.8518 79.0882 -0.786968 -0.00953476 0.616864
-20.2659 39.964 78.5246 -0.78346 -0.0151572 0.621257
-20.9564 39.2117 77.6512 -0.775388 -0.0179167 0.631231
-21.3362 38.2826 77.1527 -0.782676 0.0244416 0.620209
-22.1234 37.373 76.4359 -0.667123 0.190715 0.720041
-23.2625 37.3356 75.5517 -0.595893 0.12115 0.793872
-23.9689 36.7644 75.0436 -0.62829 0.0778077 0.774076
-24.3719 35.4089 74.8525 -0.654135 0.0806376 0.752061
-24.9029 34.5494 74.4774 -0.627022 0.0478691 0.777475
-25.4466 33.6818 74.0805 -0.635479 0.0426475 0.770939
-25.8871 32.7295 73.7624 -0.648049 0.0353197 0.760775
-26.4911 31.1574 73.3226 -0.666309 0.0209944 0.744864
-26.7686 29.9818 73.0763 -0.682803 0.0104306 0.730522
-26.9077 28.7865 72.9446 -0.675821 -0.00196025 0.737062
-27.0526 27.6217 72.8045 -0.676077 -0.00465442 0.736816
-27.0804 26.5823 72.7835 -0.684482 -0.00132386 0.729001
-27.0586 24.7358 72.7825 -0.684499 -0.00929071 0.728954
-26.8241 23.5563 72.9843 -0.683598 -0.0110044 0.729775
-26.2475 22.0511 73.4792 -0.672296 -0.0223638 0.739944
-25.6669 20.4231 73.9495 -0.67116 -0.0288972 0.740749
-25.3518 19.2304 74.1915 -0.673041 -0.0223645 0.739267
-25.707 17.6055 73.8144 -0.674722 -0.0250413 0.737647
-26.0868 16.6507 73.4372 -0.676894 -0.0224628 0.735734
-26.3828 15.6619 73.1315 -0.678122 -0.0239384 0.73456
-26.8241 14.8747 72.7005 -0.673069 -0.0298559 0.738966
-27.107 13.9549 72.4171 -0.678426 -0.0142467 0.734531
-27.1764 12.7807 72.3305 -0.683469 -0.0220937 0.729563
-27.0094 11.6875 72.4469 -0.670551 -0.0258074 0.741415
-26.8419 10.679 72.5633 -0.671259 -0.0222869 0.740878
-26.386 9.73289 72.9545 -0.672827 -0.0186742 0.739564
-25.7278 9.05208 73.542 -0.676394 -0.016528 0.736354
-24.8344 8.24013 74.332 -0.660288 -0.0196686 0.750754
-23.5889 7.5925 75.4082 -0.659541 -0.0225673 0.75133
-23.0738 6.22905 75.8189 -0.650903 -0.0286816 0.758608
-23.4971 5.08795 75.4124 -0.648741 -0.0225997 0.760629
-24.0155 4.33935 74.974 -0.651323 0.0071811 0.758767
-24.6351 3.67091 74.4473 -0.658399 -0.00120177 0.752574
-25.3824 2.63445 73.7697 -0.666058 -0.00293555 0.745873
-25.9088 1.61137 73.292 -0.671432 -0.00368882 0.741057
-26.3706 0.687556 72.8587 -0.69117 -0.00421311 0.722676
-26.6354 -0.38683 72.6026 -0.691532 -0.00240455 0.722342
-26.5942 -1.87708 72.6407 -0.682005 0.00224473 0.731343
-26.6056 -2.91918 72.6346 -0.68098 2.6002e-05 0.7323
-26.4637 -4.40553 72.7562 -0.662506 -0.00243085 0.749053
-26.0545 -5.44151 73.1226 -0.671893 0.0177104 0.740436
-25.5469 -6.96555 73.6208 -0.674815 0.011525 0.737857
-24.7513 -8.3078 74.3413 -0.664962 0.00616337 0.746852
-24.0457 -8.97577 74.9863 -0.641423 0.0185395 0.766946
-23.114 -9.74958 75.7841 -0.639015 0.0303546 0.768531
-22.2714 -10.0385 76.5023 -0.647686 0.0227331 0.761568
-21.4936 -10.0782 77.1647 -0.647196 0.0238091 0.761951
-20.6842 -10.1663 77.8587 -0.643648 0.0365406 0.764415
-19.7307 -9.91453 78.6305 -0.61491 0.0372023 0.787542
-18.645 -8.81421 79.4032 -0.592783 0.0174197 0.80517
-17.9037 -8.06953 79.8995 -0.568922 0.0272341 0.821939
-17.3877 -7.16135 80.2242 -0.569926 0.0272717 0.821243
-16.7861 -5.906 80.6003 -0.570586 0.0288153 0.82073
-16.2962 -4.90086 80.8878 -0.513141 0.021106 0.858043
-16.1479 -3.89338 80.9512 -0.515108 0.0145237 0.856968
-16.1755 -2.70824 80.9169 -0.528042 0.00986663 0.849114
-16.3512 -1.18711 80.7972 -0.517288 -0.000321182 0.855811
-16.5706 -0.166505 80.6653 -0.53447 0.00600232 0.844661
-17.0968 1.28857 80.3015 -0.559018 0.00530278 0.829139
-17.4701 2.31525 80.0467 -0.559666 0.00133826 0.828717
-18.3356 3.69757 79.4701 -0.567535 -0.0183383 0.823144
-19.3147 4.6678 78.79 -0.588206 -0.00704137 0.808678
-20.3904 5.44816 77.9942 -0.614531 0.00186414 0.788742
-21.1918 6.01724 77.3539 -0.624136 -0.00644353 0.781282
-21.886 6.95473 76.8137 -0.622123 -0.0169814 0.782702
-21.3526 8.00469 77.2707 -0.621487 -0.0234989 0.783068
-20.6437 8.98542 77.8567 -0.617773 -0.0223995 0.786038
-20.0725 9.81591 78.3216 -0.603912 -0.0130581 0.796796
-19.5745 10.8073 78.695 -0.596777 -0.00256068 0.802401
-18.9668 12.2118 79.1864 -0.579956 -0.0239738 0.813696
-18.9382 13.3375 79.2223 -0.588775 -0.0093916 0.808242
-18.9518 14.3741 79.2474 -0.57376 -0.034089 0.818268
-19.2164 15.4868 79.1236 -0.588083 -0.0368523 0.807675
-19.8841 16.9833 78.6611 -0.601608 -0.028228 0.798248
-20.1973 17.9518 78.4836 -0.590264 -0.0462315 0.805885
-20.3262 19.2333 78.4488 -0.600433 -0.0315377 0.79905
-19.9956 20.637 78.7481 -0.591351 -0.0271052 0.805954
-19.2465 21.9989 79.3546 -0.596199 -0.0373252 0.801959
-18.8424 23.2273 79.7232 -0.593925 -0.048003 0.803087
-18.4652 24.1208 80.0548 -0.593249 -0.0465258 0.803673
-18.2181 25.5493 80.3159 -0.600619 -0.0433202 0.79836
-17.8768 26.5915 80.6263 -0.591196 -0.0515213 0.804864
-17.6001 27.8999 80.9236 -0.600317 -0.0451207 0.798299
-17.1457 28.8321 81.3028 -0.574311 -0.046213 0.817331
-16.4624 30.1192 81.8602 -0.576218 -0.0493432 0.815805
-16.1245 31.0405 82.1958 -0.609607 -0.0490927 0.790946
-15.7629 31.9909 82.5085 -0.609175 -0.0314575 0.792407
-15.0588 32.5158 83.1303 -0.636501 -0.0658245 0.768462
-14.2516 33.1445 83.7833 -0.562141 -0.129474 0.81681
-13.4196 33.3118 84.3728 -0.543645 -0.132165 0.828376
-12.4887 33.3128 84.9531 -0.518465 -0.133424 0.844583
-11.6265 33.3804 85.4917 -0.494767 -0.157235 0.854192
-10.6638 33.2836 85.9852 -0.444123 -0.162005 0.881007
-9.69924 33.3925 86.4708 -0.432152 -0.152518 0.88881
-8.72167 33.5266 86.9692 -0.433036 -0.153655 0.888182
-7.59484 33.449 87.4312 -0.296056 -0.235024 0.925805
-6.63664 33.1267 87.6848 -0.288019 -0.193842 0.936693
-5.66178 33.146 87.9337 -0.218416 -0.191521 0.956792
-4.30993 33.1353 88.2326 -0.21331 -0.179845 0.960289
-3.33808 32.945 88.3625 -0.14157 -0.188533 0.971465
-2.07017 32.9359 88.4707 -0.0528013 -0.185826 0.980928
-0.991469 32.9788 88.5182 -0.033513 -0.198682 0.979489
0.0178386 33.1586 88.5372 0.0250079 -0.223454 0.974394
1.74124 33.3876 88.5303 0.0461407 -0.250515 0.96701
3.63181 33.3096 88.3269 0.135737 -0.228121 0.964077
4.63122 33.1738 88.1534 0.180356 -0.213099 0.95922
5.56307 32.8793 87.8726 0.223721 -0.203066 0.953264
6.58956 33.071 87.6717 0.226228 -0.198881 0.953545
7.66049 33.1255 87.2948 0.334633 -0.196202 0.921697
9.01201 33.2757 86.8101 0.384204 -0.170007 0.907447
10.1127 33.4407 86.3705 0.388331 -0.172635 0.905205
11.1098 33.6613 85.8718 0.478321 -0.109592 0.871312
12.3641 33.9852 85.2189 0.483173 -0.103512 0.869384
13.4203 34.2119 84.6683 0.506686 -0.106516 0.854489
14.7853 34.4697 83.7899 0.558631 -0.0873239 0.824804
15.6483 34.37 83.1177 0.614512 -0.0351638 0.78812
16.4975 34.369 82.4578 0.613245 -0.0335722 0.789179
17.3291 34.4094 81.8034 0.6258 -0.0283273 0.779441
18.2617 34.8917 81.0505 0.667727 -0.00541219 0.742904
19.3693 35.604 79.9537 0.696047 0.0209998 0.717688
19.9106 36.2239 79.3754 0.70444 0.0797671 0.705007
20.4223 37.0397 78.7432 0.745005 0.0761353 0.662594
20.8343 38.6244 78.158 0.778359 0.0100141 0.627731
21.2921 40.0683 77.5801 0.78468 0.0118632 0.619641
21.3722 41.0533 77.4328 0.78559 0.0322665 0.617905
21.146 42.5507 77.6571 0.779877 0.0132331 0.625771
21.047 43.5817 77.7664 0.781728 0.0091976 0.623552
20.5778 44.8204 78.342 0.782288 0.00127367 0.622844
20.2797 45.7329 78.7068 0.785962 0.0109567 0.618177
19.9789 46.9558 79.0743 0.787277 0.00769072 0.61655
19.3587 48.0081 79.7919 0.736936 0.0242793 0.675511
18.7552 48.8805 80.4193 0.732793 0.0232514 0.680046
18.0948 49.1929 81.1064 0.71718 0.015579 0.696714
17.3955 49.878 81.8053 0.713489 0.0156702 0.700486
16.4561 50.7916 82.7307 0.695895 0.017512 0.717929
15.6879 51.4425 83.4361 0.663433 -0.00232906 0.748224
14.9162 52.2374 84.1109 0.660646 0.0104303 0.750608
14.0052 52.3243 84.8667 0.621878 0.00932414 0.78288
13.0977 52.3459 85.5356 0.579782 0.0170596 0.814439
12.0485 52.2928 86.2659 0.570115 0.0276734 0.821099
11.116 52.2998 86.8743 0.518594 0.0144763 0.854373
10.0431 52.3287 87.4847 0.487889 0.0192614 0.872616
8.93053 52.2513 88.0378 0.404431 0.0212178 0.914312
8.00002 52.3032 88.4396 0.372502 0.0253627 0.927246
6.83718 52.2788 88.8701 0.336465 0.0174639 0.941528
5.60751 52.2508 89.2742 0.266899 0.0336281 0.963138
4.1431 52.2613 89.6647 0.216913 0.0303922 0.974972
3.15962 52.2702 89.846 0.181529 0.0424875 0.982467
2.14106 52.2602 90.0112 0.110817 0.0404387 0.991691
1.10754 52.2525 90.0776 0.0634662 0.0597129 0.996196
-0.840313 52.2418 90.0988 -0.0402481 0.0625271 0.997167
-1.84611 52.2522 90.0491 -0.0744009 0.0666305 0.994595
-2.86798 52.2882 89.9394 -0.101978 0.0742518 0.992009
-3.94304 52.2955 89.7727 -0.174548 0.0380404 0.983702
-5.06208 52.2978 89.5539 -0.191602 0.0486755 0.980265
-6.17244 52.2906 89.3172 -0.246007 0.052399 0.966961
-7.22295 52.2971 89.0069 -0.281643 0.0709458 0.956892
-8.24103 52.3255 88.6376 -0.378617 0.0323823 0.924415
-9.29603 52.3309 88.1699 -0.404563 0.0484907 0.913223
-10.3395 52.3042 87.6403 -0.486816 0.00928428 0.873248
-11.2669 52.2963 87.1044 -0.500694 0.0197349 0.865399
-12.1514 52.3075 86.5285 -0.574001 0.00226709 0.818466
-13.0372 52.2969 85.8799 -0.590778 0.0167474 0.80666
-13.8754 52.1569 85.2172 -0.626381 -0.00434994 0.779505
-14.7507 51.7645 84.4995 -0.647703 -0.00124348 0.761738
-15.3402 51.3227 83.9785 -0.661753 -0.00805662 0.749675
-3.37371 43.0458 89.9432 -0.17165 -0.0237939 0.984763
-2.6473 42.4033 90.0465 -0.153821 -0.0347594 0.98729
-0.976766 42.1433 90.2613 -0.0943387 -0.062244 0.992451
0.47097 42.2468 90.2346 0.02785 -0.0266344 0.999256
1.7376 42.235 90.1388 0.0949093 -0.00102017 0.995485
0.609221 42.8774 90.2484 0.062912 -0.0163156 0.997226
-0.381031 43.0894 90.2686 -0.0234211 0.0201992 0.999515
-0.987941 42.3727 90.265 -0.0762963 -9.88248e-05 0.995713
-2.01147 42.9451 90.1462 -0.12866 -0.0194329 0.991491
-2.86916 43.1369 90.0299 -0.159744 -0.00746676 0.987095
1.81204 42.2476 90.1317 0.0971781 -0.00263342 0.995262
3.23433 42.401 89.9186 0.216122 -0.00967126 0.976319
2.82443 43.1956 90.0254 0.201071 -0.0286335 0.978849
2.02302 43.0626 90.1123 0.0882956 -0.032976 0.995009
3.80691 42.27 89.7907 0.215837 -0.00999673 0.976378
4.64858 42.7681 89.6096 0.228227 -0.0148444 0.973392
5.66385 42.8921 89.3633 0.233185 -0.0276126 0.97204
6.71086 42.9764 89.1138 0.265121 -0.0445784 0.962495
7.76905 42.9422 88.7255 0.453982 -0.00167643 0.891001
8.94908 43.0787 88.1205 0.453478 -0.0127371 0.891129
9.8475 42.6562 87.6197 0.476565 -0.041866 0.878142
10.6124 43.1999 87.2267 0.541323 -0.038517 0.839919
11.3149 42.7489 86.7492 0.535812 -0.0288044 0.843846
9.9159 42.5205 87.5758 0.480549 -0.0395105 0.87606
9.09279 42.8571 88.0404 0.478399 -0.0329634 0.877519
8.29718 42.3241 88.4515 0.467611 -0.0192696 0.883507
7.39687 42.4272 88.8658 0.298003 -0.0611055 0.952604
6.43596 42.4208 89.1642 0.265497 -0.043484 0.962432
5.41084 42.2974 89.4104 0.241884 -0.0209335 0.970079
4.40436 42.1791 89.6575 0.227946 -0.0161306 0.973448
-19.1651 33.761 79.8171 -0.674047 0.00147021 0.738429
-20.2143 34.0227 78.8239 -0.68021 0.0190285 0.732711
-20.8431 33.4081 78.2684 -0.673677 0.0211309 0.738724
-21.4947 32.7405 77.6876 -0.688108 0.0391821 0.724517
-22.197 31.8525 77.0984 -0.65977 0.0168604 0.751278
-22.6158 30.9941 76.7508 -0.660167 0.0155448 0.750955
-23.0269 30.0958 76.4044 -0.66251 0.013118 0.748938
-23.3103 29.1645 76.17 -0.661854 0.0127648 0.749524
-23.5195 28.1955 76.0016 -0.662429 0.0123622 0.749022
-23.6517 27.0691 75.9027 -0.665587 0.000137571 0.746206
-23.5962 25.7626 75.9397 -0.641259 -0.00758941 0.767287
-23.3414 24.7734 76.1426 -0.642531 -0.00715568 0.766225
-22.7239 24.4859 76.6579 -0.641697 -0.0059035 0.766936
-21.985 25.8437 77.2981 -0.641072 -0.0208387 0.767198
-21.5392 27.0839 77.6984 -0.635502 -0.0149754 0.771954
-21.1306 28.6754 78.0713 -0.645211 -0.0138728 0.76384
-20.8258 29.7115 78.3297 -0.6638 -0.0174394 0.747707
-20.4823 30.7524 78.6593 -0.667231 -0.000250743 0.744633
-20.0516 31.7696 79.0292 -0.672629 0.0149066 0.73983
-19.6828 32.6561 79.3425 -0.653052 -0.0102223 0.757053
-19.2566 33.5183 79.7326 -0.66282 -0.0107189 0.748702
-19.2374 33.5647 79.7502 -0.66282 -0.0107305 0.748702
-20.4422 32.8966 78.6487 -0.673008 0.0202942 0.739355
-20.9387 31.8609 78.2203 -0.672612 0.0166963 0.739806
-21.7201 31.4682 77.5258 -0.65977 0.0168604 0.751278
-22.2039 30.4733 77.1229 -0.660512 0.0137404 0.75069
-22.6563 29.1711 76.7474 -0.661465 0.0126506 0.749869
-22.9065 28.0709 76.5407 -0.651791 0.00315382 0.758392
-23.0917 27.0751 76.3857 -0.650941 -0.00745435 0.759018
-23.0609 26.0144 76.3896 -0.641259 -0.00758941 0.767287
-22.425 26.5605 76.9446 -0.649453 -0.0168451 0.760213
-21.8707 27.9472 77.4282 -0.64913 -0.00418634 0.760646
-21.5415 29.3749 77.7177 -0.653461 0.00625958 0.756923
-21.1549 30.4785 78.0561 -0.667616 -0.000504862 0.74428
-20.8175 31.2961 78.3436 -0.671189 0.0174416 0.74108
-20.4881 32.5759 78.6152 -0.672404 0.0160218 0.74001
-20.4477 32.666 78.6498 -0.672124 0.0179842 0.740218
-22.956 19.0008 76.3115 -0.648124 -0.0258402 0.761078
-23.1439 17.8549 76.1047 -0.656048 -0.0286431 0.754174
-23.4795 16.4861 75.76 -0.653418 -0.0294936 0.756412
-23.9504 15.4832 75.3221 -0.655978 -0.0196341 0.754476
-24.4729 14.0271 74.8067 -0.668022 -0.0275686 0.743616
-24.678 13.0096 74.5868 -0.670083 -0.0186026 0.742023
-24.559 12.0141 74.6778 -0.66931 -0.0125666 0.742877
-23.7056 10.9278 75.4001 -0.653936 -0.0223391 0.756213
-22.4955 11.0034 76.4238 -0.640448 -0.0260468 0.767518
-21.8339 12.1224 76.9979 -0.621173 -0.0168106 0.783261
-21.5355 13.0947 77.2549 -0.6154 -0.0212141 0.787929
-21.6776 14.7976 77.2082 -0.625326 -0.0283761 0.779729
-22.0522 15.8392 76.929 -0.63584 -0.0323556 0.77103
-22.5239 16.9749 76.5942 -0.647268 -0.0327827 0.761557
-23.1278 17.8533 76.1185 -0.647338 -0.0327341 0.7615
-22.9866 18.7319 76.2763 -0.644045 -0.0273403 0.764498
-22.6726 15.7703 76.4193 -0.639771 -0.0218134 0.768207
-22.17 14.2275 76.7925 -0.625326 -0.0283761 0.779729
-22.1858 13.0936 76.7393 -0.638001 -0.0288411 0.769495
-22.5193 12.1026 76.4315 -0.636971 -0.018204 0.770673
-23.8933 12.1383 75.2779 -0.658685 -0.0182491 0.752091
-24.0124 13.3412 75.2 -0.669286 -0.0265649 0.742527
-23.7238 14.5491 75.4908 -0.645705 -0.0209711 0.763294
-23.323 15.5023 75.8602 -0.648715 -0.0256279 0.760588
-22.9925 15.7507 76.1477 -0.645848 -0.0244134 0.763075
-23.1533 14.5365 75.9737 -0.646191 -0.0235989 0.762811
-22.6812 13.6724 76.3508 -0.641536 -0.0236727 0.766691
-23.4025 12.8537 75.7215 -0.641833 -0.0239455 0.766438
-23.2787 14.1466 75.8571 -0.645297 -0.0181168 0.763717
-23.2254 14.3636 75.9073 -0.645705 -0.0209711 0.763294
-22.2911 6.0103 76.4765 -0.636168 -0.0201939 0.771069
-22.7981 5.17607 76.0112 -0.648741 -0.0225997 0.760629
-23.2676 4.26077 75.5963 -0.638693 -0.00276796 0.769451
-24.1966 3.18543 74.8275 -0.637253 0.000558023 0.770654
-25.0401 1.96147 74.0786 -0.667439 0.00189519 0.744662
-25.4843 1.02968 73.6737 -0.671487 -0.00365735 0.741007
-25.9024 -0.151014 73.2925 -0.68116 -0.00651148 0.732105
-26.0328 -1.13857 73.1618 -0.6818 -0.00213813 0.731518
-26.0395 -2.15143 73.1582 -0.681566 0.0025695 0.731752
-26.0089 -3.22881 73.1893 -0.676984 -0.0093603 0.73584
-25.6761 -4.81382 73.4545 -0.668751 -0.00904343 0.743377
-25.4071 -5.73994 73.719 -0.675117 0.017798 0.737496
-24.9467 -6.76518 74.1572 -0.666358 0.00285325 0.745627
-24.2816 -7.7645 74.7545 -0.665132 0.00421737 0.746711
-23.3406 -8.66504 75.575 -0.656158 -0.00522915 0.754605
-22.1137 -9.24576 76.6193 -0.643195 -0.0111015 0.765622
-21.2474 -9.33811 77.3507 -0.647196 0.0238091 0.761951
