-5.0764 -43.7618 93.6761 -0.187393 0.012152 0.982206
-4.19207 -44.0076 93.8418 -0.149975 0.00635696 0.988174
-3.18589 -43.7905 93.952 -0.097466 0.0249513 0.994925
-1.58946 -43.5421 94.0702 -0.0521832 0.0108371 0.998553
-0.557639 -43.6244 94.1151 -0.041953 0.0112271 0.999057
0.675153 -43.7279 94.1448 0.00526787 0.00751621 0.999956
1.90951 -43.7257 94.1237 0.0360644 0.013694 0.999183
2.99684 -43.5745 94.0507 0.0728272 0.0162365 0.99721
3.04066 -43.825 94.0518 0.0732256 0.0176212 0.997155
2.01453 -44.1331 94.1206 0.0313209 -0.00809572 0.999476
0.530319 -44.083 94.1485 -0.0100567 0.00502902 0.999773
-0.655586 -43.9557 94.1148 -0.0352797 0.00642406 0.99932
-1.72981 -43.9318 94.0643 -0.058978 0.00547142 0.998244
-2.64443 -44.3594 94.0041 -0.0745059 0.0130015 0.997034
-4.10203 -44.5531 93.8536 -0.120875 0.00167214 0.992665
-5.01428 -43.8298 93.6886 -0.184561 0.00935117 0.982774
-4.92238 -42.9396 93.6924 -0.184536 0.0154975 0.982699
-6.15063 -43.8123 93.4562 -0.238533 0.0119009 0.97102
-5.74452 -44.9085 93.5628 -0.183531 0.0113383 0.982948
-4.61809 -45.123 93.7739 -0.182087 0.00936379 0.983238
-3.62574 -45.2065 93.9139 -0.124915 0.0068185 0.992144
-2.03156 -44.9285 94.0572 -0.0591661 0.0173701 0.998096
-0.307755 -44.8007 94.1281 -0.0260034 0.0226217 0.999406
0.73814 -44.847 94.1537 0.0182967 0.000235483 0.999756
2.58906 -44.8526 94.0958 0.0323853 -0.0023194 0.999453
3.77426 -45.0152 94.0136 0.0788715 0.0125807 0.996805
5.05823 -45.0328 93.8908 0.128982 0.00329661 0.991641
6.71962 -44.911 93.6504 0.178984 0.019386 0.98323
7.57558 -44.0709 93.4564 0.204763 0.00992046 0.978748
7.00192 -43.0914 93.5744 0.185141 -0.00242096 0.982476
5.26819 -43.0256 93.8549 0.156065 -0.00488969 0.987735
4.14555 -43.0529 93.9557 0.0738538 0.0125169 0.997188
2.43586 -42.9347 94.0812 0.0728272 0.0162365 0.99721
1.3801 -42.9864 94.136 0.0285171 -0.00461376 0.999241
0.222835 -42.978 94.1399 -0.0122242 0.00432408 0.999773
-0.808133 -42.9324 94.0968 -0.041953 0.0112271 0.999057
-1.90669 -42.9145 94.0469 -0.0521832 0.0108371 0.998553
-3.12109 -42.9751 93.939 -0.093929 0.0118364 0.995509
-4.69764 -42.9383 93.7339 -0.179767 0.0176235 0.983546
-4.88158 -42.2181 93.6852 -0.18184 0.0216072 0.983084
-3.54102 -42.2217 93.8904 -0.0952634 0.015043 0.995332
-2.10401 -42.2423 94.0304 -0.0845237 0.0031439 0.99628
-1.05364 -42.2286 94.0901 -0.046906 -0.0112593 0.998834
-0.0349425 -42.2593 94.1357 -0.022361 -0.00235801 0.999457
1.66029 -42.2224 94.1316 0.0285171 -0.00461376 0.999241
3.02169 -42.2251 94.0307 0.0741924 0.00131781 0.997227
4.33992 -42.2722 93.9315 0.0745624 0.00416986 0.997165
5.60331 -42.2962 93.8055 0.159792 -0.0011539 0.987136
6.91494 -42.3545 93.5877 0.164611 0.00273208 0.986355
8.02837 -42.6503 93.3613 0.206564 -0.0063042 0.978413
8.38465 -44.0346 93.2894 0.201838 0.00591455 0.979401
8.04349 -45.2032 93.3743 0.206668 0.016369 0.978273
7.23463 -45.5793 93.5515 0.2067 0.0163573 0.978266
5.4194 -45.7288 93.8464 0.12925 0.00357187 0.991606
4.20844 -45.7253 93.9876 0.0801196 0.0127488 0.996704
2.91748 -45.6303 94.0867 0.055432 0.0064237 0.998212
1.09571 -45.6076 94.1461 0.0305594 0.00379926 0.999526
0.0731598 -45.5883 94.1553 -0.00938552 0.00927873 0.999702
-1.00726 -45.6108 94.1252 -0.0544742 0.0147727 0.998406
-2.23262 -45.7235 94.0597 -0.057363 0.0174055 0.998195
-3.40762 -45.8532 93.9456 -0.123659 0.0073958 0.992296
-5.03629 -45.8094 93.7035 -0.181602 0.00956283 0.983326
-6.07753 -45.6643 93.5085 -0.215494 0.01436 0.975826
-6.95321 -44.4415 93.2573 -0.247525 0.0136683 0.968742
-6.85128 -43.274 93.277 -0.240342 0.0123135 0.970574
-5.74278 -42.2904 93.5238 -0.210508 0.0186924 0.977145
-5.58795 -42.2613 93.5529 -0.186706 0.0197813 0.982214
-5.74435 -41.5588 93.5152 -0.203619 0.00919247 0.978723
-4.17728 -41.4971 93.7991 -0.178893 0.0161286 0.983731
-3.09662 -41.5262 93.9286 -0.104475 0.00179229 0.994522
-2.01554 -41.5336 94.0324 -0.0681555 0.00598538 0.997657
-0.306933 -41.5443 94.1308 -0.0239278 -0.0015564 0.999457
1.02151 -41.499 94.1305 0.00322107 0.00551653 0.999979
2.32571 -41.4847 94.0818 0.0734195 -0.000262852 0.997292
3.59968 -41.5039 93.9921 0.0701516 -0.00292988 0.997532
4.9717 -41.5587 93.8834 0.0988071 0.00439573 0.99492
6.19317 -41.6077 93.7062 0.163808 0.00132321 0.986491
7.2811 -41.6513 93.5242 0.185325 -0.00112036 0.98245
8.74569 -41.9637 93.1985 0.221772 0.0135892 0.975004
9.10868 -43.7362 93.1211 0.269485 0.000876965 0.963004
9.09085 -44.7395 93.1271 0.269172 0.00188125 0.96309
8.8645 -45.874 93.2062 0.275907 0.0158378 0.961054
7.75631 -46.3488 93.4555 0.206076 0.0176754 0.978376
6.7041 -46.3822 93.674 0.178811 0.00275873 0.983571
5.64438 -46.4486 93.8263 0.12819 0.0148764 0.991637
3.89259 -46.4107 94.022 0.0861568 0.00608622 0.996222
2.68498 -46.3911 94.0959 0.0341183 0.00105707 0.999417
1.5794 -46.3736 94.1337 0.0326446 0.00229725 0.999462
0.516806 -46.3538 94.1497 0.00725678 -0.00394848 0.999965
-0.576388 -46.3629 94.1565 -0.00963826 0.00972728 0.999694
-1.627 -46.4218 94.1022 -0.0559659 0.00366664 0.998426
-3.18442 -46.5396 93.9795 -0.116702 0.000738703 0.993111
-4.3937 -46.5608 93.8288 -0.152432 0.00764293 0.987872
-5.47448 -46.5146 93.6291 -0.185396 0.00669255 0.982634
-6.96026 -46.2966 93.3043 -0.234413 0.00884397 0.972097
-7.61409 -45.5759 93.1196 -0.244167 0.0292407 0.969292
-7.65812 -43.8313 93.0739 -0.258949 0.00635832 0.96587
-7.53168 -42.8167 93.1001 -0.272529 0.0139667 0.961965
-6.62697 -41.6492 93.3104 -0.228723 0.00676783 0.973468
-6.53866 -41.6186 93.3309 -0.227366 0.00782199 0.973777
-6.6684 -40.8436 93.2924 -0.227055 0.0105064 0.973825
-5.56536 -40.8255 93.5401 -0.17988 0.0119553 0.983609
-4.04572 -40.7778 93.8153 -0.147227 0.0129286 0.988465
-2.87193 -40.8164 93.9497 -0.105498 0.0111799 0.994316
-1.66214 -40.8194 94.052 -0.0702622 0.00820342 0.997491
-0.592997 -40.8317 94.1246 -0.0515467 0.0123627 0.998427
0.57476 -40.8004 94.1292 0.000539585 -0.00119825 0.999999
1.66311 -40.7563 94.1177 0.0304792 0.00526303 0.99946
2.92351 -40.7622 94.0421 0.0697061 -0.00139139 0.997565
4.37133 -40.8041 93.9369 0.0922475 0.00660648 0.99552
5.59022 -40.8699 93.8015 0.114155 0.0176557 0.993305
6.77017 -40.9138 93.6091 0.169995 0.00479803 0.985415
7.9761 -40.963 93.3662 0.225987 -0.00452062 0.97412
9.11506 -41.0997 93.1016 0.249867 0.0115825 0.967812
9.69545 -42.2846 92.9458 0.276055 0.00907819 0.961099
9.7857 -43.3734 92.9313 0.272349 0.00556915 0.962166
9.80523 -44.4269 92.9269 0.269566 0.00172536 0.96298
9.77457 -45.4606 92.9383 0.269381 0.0025874 0.96303
9.14112 -46.8136 93.1438 0.280838 0.00847778 0.959663
7.84597 -47.1046 93.4449 0.202974 0.00914758 0.979141
6.80521 -47.1088 93.6555 0.15562 -0.00254131 0.987813
5.63358 -47.1787 93.8376 0.137333 0.00420826 0.990422
4.36239 -47.1744 93.9814 0.0956303 0.00324699 0.995409
3.10174 -47.1461 94.0859 0.0549693 0.00527694 0.99825
1.55917 -47.109 94.1414 0.0269554 0.0117926 0.999517
0.550023 -47.1025 94.1553 0.00891837 0.0132911 0.999872
-1.28778 -47.1445 94.1239 -0.0515448 -0.000453186 0.998652
-2.37753 -47.2132 94.0631 -0.0823956 -0.0042646 0.996203
-4.17356 -47.2758 93.8624 -0.11764 -0.000770052 0.992992
-5.3881 -47.2578 93.6485 -0.18569 0.00349741 0.9826
-6.74892 -47.1304 93.3626 -0.234937 0.00891072 0.97197
-7.92049 -46.876 93.0738 -0.270293 0.00802564 0.962252
-8.36851 -45.8537 92.9226 -0.267278 0.0327893 0.963061
-8.38731 -44.1474 92.8805 -0.258714 0.00718566 0.965927
-8.2153 -42.4314 92.9008 -0.272529 0.0139667 0.961965
-7.65795 -41.065 93.0587 -0.280944 0.0102826 0.95963
-7.46917 -40.956 93.1073 -0.229338 0.0148719 0.973219
-7.6168 -40.1539 93.0562 -0.258979 0.0172146 0.965325
-6.25998 -40.1 93.3779 -0.225227 0.0128206 0.974222
-5.09792 -40.0593 93.6163 -0.17988 0.0119553 0.983609
-3.58646 -40.087 93.8554 -0.114708 0.0213233 0.993166
-2.23842 -40.105 94.0059 -0.0916138 0.0116453 0.995533
-1.20743 -40.1274 94.0797 -0.0689975 0.00501016 0.997603
-0.0198471 -40.122 94.1303 -0.0198148 0.00840337 0.999579
1.10617 -40.0441 94.13 0.0198688 0.00643326 0.999567
2.33619 -40.0308 94.0825 0.0539847 0.00651629 0.998386
3.76859 -40.0577 93.9846 0.073933 0.000488744 0.99725
4.96455 -40.1163 93.8596 0.111968 0.00403599 0.993585
6.19853 -40.1751 93.7031 0.168978 0.00572178 0.985581
7.28213 -40.205 93.5117 0.174197 0.00976662 0.984662
8.33761 -40.25 93.2862 0.225042 -0.00377847 0.974341
9.99038 -40.3967 92.8301 0.295475 -0.00480169 0.955337
10.3782 -41.6673 92.7433 0.279643 0.0152638 0.959959
10.449 -42.7541 92.7348 0.275275 0.0107966 0.961305
10.4815 -43.8141 92.7367 0.272542 0.0054786 0.962114
10.4901 -44.8874 92.7366 0.269294 0.00258849 0.963055
10.461 -45.9432 92.7475 0.273739 0.00937774 0.961723
10.0754 -47.3947 92.8655 0.284664 -0.000421075 0.958627
8.8511 -47.8412 93.2391 0.248599 0.00793867 0.967575
7.57601 -47.8361 93.5073 0.202693 0.0083666 0.979206
6.30556 -47.8573 93.7331 0.156395 -0.00200771 0.987692
5.26587 -47.9212 93.8932 0.1359 0.0121705 0.990476
4.18261 -47.9053 94.0065 0.0891715 0.0145485 0.995824
2.9564 -47.8613 94.0968 0.0649137 0.00721512 0.99783
1.93535 -47.8456 94.1394 0.0286312 0.0102159 0.99949
0.900098 -47.8466 94.1585 0.0177911 0.00662659 0.99982
-0.18561 -47.8463 94.1711 -0.0182359 0.00296801 0.999426
-1.19449 -47.8826 94.1246 -0.0472686 -0.00500577 0.99887
-2.33154 -47.9329 94.0592 -0.103043 0.0105075 0.994341
-3.44177 -47.9598 93.9513 -0.0989822 0.0340687 0.994505
-4.62487 -47.9838 93.7989 -0.173732 0.00819004 0.984668
-6.31686 -47.9139 93.4734 -0.188831 0.00715919 0.981977
-7.76608 -47.8027 93.1161 -0.240913 0.00492975 0.970534
-8.83009 -47.3987 92.7947 -0.299508 0.0120992 0.954017
-9.0918 -46.1098 92.7109 -0.294314 -0.00271566 0.955705
-9.10833 -44.8053 92.682 -0.270059 0.020402 0.962559
-9.04931 -43.6166 92.6889 -0.274344 0.00963599 0.961579
-8.90191 -42.0607 92.7013 -0.272997 0.0116484 0.961879
-8.57098 -40.5616 92.7781 -0.285115 0.0179475 0.958325
-8.22367 -40.3621 92.8784 -0.28568 0.0147817 0.958211
-8.39571 -39.4486 92.8132 -0.283483 0.0138099 0.958875
-9.36274 -39.9637 92.5316 -0.304152 0.011393 0.952363
-9.54531 -41.0466 92.4861 -0.328852 0.0147189 0.944267
-9.64366 -42.5574 92.4804 -0.326586 0.0179389 0.944996
-9.75438 -44.0188 92.4689 -0.327483 0.0184227 0.944677
-9.80355 -45.4058 92.4739 -0.335272 0.00976518 0.942056
-9.76132 -47.0726 92.4949 -0.336804 -0.00125014 0.941563
-9.58604 -48.1151 92.5648 -0.301458 0.0116875 0.953406
-8.21826 -48.5864 93.002 -0.29801 0.0100627 0.954505
-7.21813 -48.598 93.2596 -0.243954 0.0154148 0.969664
-6.04076 -48.6831 93.5378 -0.186304 0.0156483 0.982368
-5.01471 -48.6764 93.7343 -0.181107 0.0079281 0.983369
-4.0156 -48.662 93.9016 -0.153576 0.00160446 0.988086
-2.87467 -48.6534 94.0297 -0.0848696 0.0123637 0.996136
-1.52246 -48.6452 94.1123 -0.0442471 0.00868761 0.998983
-0.0360042 -48.5824 94.1743 -0.037211 0.00522463 0.999277
1.20911 -48.5827 94.1596 0.0175876 0.0200328 0.999645
2.28899 -48.5781 94.1376 0.0368635 0.0147858 0.999052
3.33728 -48.6052 94.0774 0.0614269 0.00951483 0.998059
4.45259 -48.6525 93.9928 0.0938292 0.00752943 0.995377
5.56516 -48.65 93.8611 0.1359 0.0121705 0.990476
6.90931 -48.5595 93.6444 0.170923 0.0121499 0.985148
7.89406 -48.5617 93.4479 0.205584 0.01348 0.978546
9.12328 -48.5957 93.1667 0.272858 0.00334181 0.961761
10.6259 -48.3553 92.7056 0.32162 0.00897854 0.946242
11.0504 -47.4398 92.5451 0.354906 -0.00225309 0.934899
11.1452 -45.9397 92.518 0.346856 -0.00553179 0.937883
11.1618 -44.8613 92.5124 0.343805 -0.000521012 0.939041
11.1522 -43.7923 92.5129 0.34657 0.00694942 0.937997
11.1315 -42.7506 92.5111 0.346281 0.00926847 0.938085
11.1069 -41.702 92.5104 0.341009 0.0137128 0.93993
11.046 -40.6546 92.51 0.336569 0.0201698 0.941443
10.5293 -39.7045 92.665 0.301312 -0.00390387 0.953514
9.30595 -39.4995 93.0432 0.268021 0.00874251 0.963073
7.94513 -39.4888 93.3762 0.222324 0.0120929 0.974834
6.75268 -39.4685 93.601 0.175441 0.000538903 0.98449
5.70343 -39.4387 93.7773 0.137782 -0.000665321 0.990266
4.50867 -39.3582 93.9211 0.116853 -0.0102647 0.993096
3.19565 -39.3505 94.0255 0.0703262 0.00175569 0.997513
1.89624 -39.2901 94.0881 0.0366309 0.0142542 0.999225
0.779314 -39.3325 94.1319 0.0198688 0.00643326 0.999567
-0.706856 -39.4331 94.1047 -0.0470895 0.00161206 0.998824
-1.86868 -39.4173 94.0306 -0.0778818 0.00682843 0.996901
-2.97205 -39.3927 93.9206 -0.108905 -0.00261093 0.994048
-4.28057 -39.3824 93.758 -0.148985 0.0038321 0.98851
-5.51596 -39.3909 93.5293 -0.183433 0.0136458 0.982937
-6.64793 -39.3809 93.2793 -0.228218 0.00291121 0.973554
-7.70906 -39.4186 93.0168 -0.265098 0.0187557 0.963817
-7.44434 -38.5191 93.0757 -0.265749 0.0111249 0.963832
-8.57879 -38.6333 92.7484 -0.279065 0.0204678 0.960054
-9.71951 -38.7812 92.3951 -0.323862 0.0125572 0.94602
-10.3261 -40.2628 92.2035 -0.328945 0.00896519 0.944307
-10.4049 -41.4813 92.1945 -0.328106 0.0202896 0.944423
-10.5516 -42.9641 92.1735 -0.327383 0.0159512 0.944756
-10.5638 -44.0647 92.1889 -0.332604 0.0138065 0.942948
-10.597 -45.2624 92.1896 -0.336715 0.00981406 0.941555
-10.6184 -46.3015 92.1897 -0.335661 -0.00118574 0.941959
-10.5809 -47.3877 92.1973 -0.34064 -0.00593459 0.940173
-10.4562 -48.4326 92.2603 -0.343106 0.0198375 0.939087
-9.85391 -49.3005 92.4976 -0.337817 0.00916792 0.941164
-8.26325 -49.293 92.9933 -0.287343 0.0236818 0.957338
-7.19259 -49.4433 93.2781 -0.250659 0.00741038 0.968047
-5.74351 -49.4833 93.6075 -0.180707 0.0106514 0.983444
-4.54804 -49.4295 93.8178 -0.173823 0.00716308 0.984749
-3.45878 -49.4308 93.9875 -0.108855 0.0142619 0.993076
-2.391 -49.4138 94.064 -0.0701329 -0.000506024 0.997529
-1.04594 -49.4483 94.1407 -0.0462039 0.0111448 0.998866
0.00859541 -49.3123 94.1762 -0.0179283 -0.000519681 0.999714
1.04885 -49.3756 94.1784 0.00765111 0.00939646 0.999808
2.10696 -49.3988 94.1534 0.053554 0.00967283 0.998518
3.95198 -49.3964 94.0447 0.0870497 0.00330878 0.995849
4.9872 -49.4617 93.9303 0.109213 -0.0108989 0.993959
6.34768 -49.4844 93.7526 0.168527 0.0120544 0.985532
7.54461 -49.3989 93.5331 0.193288 0.00989914 0.980992
8.54017 -49.3649 93.3098 0.252889 -0.0244217 0.967186
9.75441 -49.4504 92.9898 0.271717 -0.000918698 0.961922
11.0322 -49.3361 92.556 0.353234 0.00224037 0.935532
11.9123 -48.145 92.2182 0.355245 0.0049039 0.93476
11.9688 -46.722 92.202 0.349003 -0.0112102 0.937055
12.009 -45.5974 92.2005 0.347211 -0.00619254 0.937751
11.9925 -44.4667 92.2047 0.350319 0.00567598 0.936613
11.963 -43.338 92.2089 0.349412 0.00732793 0.936939
11.9302 -42.224 92.211 0.347655 0.00749791 0.937593
11.9045 -41.0861 92.2114 0.342975 0.0136333 0.939212
11.8393 -39.9168 92.2117 0.336556 0.0157586 0.941532
10.9082 -38.8266 92.5286 0.339671 -0.0104663 0.940238
9.55657 -38.6289 92.9573 0.285812 0.0287368 0.957832
8.49751 -38.5465 93.2414 0.227665 0.00561267 0.973498
7.49349 -38.5934 93.4591 0.210802 0.0154672 0.977401
6.21816 -38.58 93.688 0.154327 0.0110886 0.987958
5.14683 -38.5032 93.8544 0.136039 0.000244976 0.990472
4.13449 -38.5305 93.9515 0.0751361 0.00631092 0.997141
2.56723 -38.5017 94.0652 0.0565682 5.1535e-05 0.998214
1.29897 -38.5565 94.1122 0.0266754 0.00474251 0.999507
0.236594 -38.6368 94.1267 -0.00883987 -0.00378934 0.999943
-1.26877 -38.5857 94.0725 -0.0707463 -0.0019378 0.997359
-2.48801 -38.5569 93.9688 -0.0842842 0.0063255 0.996421
-3.62561 -38.5136 93.8547 -0.143057 -0.00382541 0.989047
-4.91102 -38.4873 93.6269 -0.177857 0.0161897 0.98392
-6.03783 -38.5195 93.4213 -0.203939 0.0137312 0.978669
-6.98159 -38.4119 93.1968 -0.245326 0.00180335 0.969404
4.06486 -44.3515 93.9818 0.080048 0.0146945 0.996681
5.0777 -44.3545 93.8863 0.139004 0.0133334 0.990096
6.15996 -44.1345 93.7173 0.150537 0.0231701 0.988333
5.66751 -43.6717 93.7885 0.156006 -0.00513692 0.987743
4.90812 -43.8412 93.9075 0.115823 0.00359627 0.992404
4.56413 -43.847 93.9337 0.0776626 0.0143672 0.996872
