-4.89153 43.9957 93.2823 -0.160677 0.0199261 0.98675
-3.94488 44.4116 93.3836 -0.100941 0.00573594 0.994876
-2.90775 44.3979 93.4895 -0.0869622 0.0147034 0.995954
-1.88236 44.2965 93.5526 -0.0521672 0.0105907 0.998582
-0.648812 44.0928 93.6138 -0.0157777 0.00979498 0.999673
1.04897 43.7541 93.6131 0.0263645 0.0098038 0.99926
2.16583 43.4893 93.5335 0.0762463 0.00966494 0.997011
1.15435 43.4679 93.612 0.046964 0.00708531 0.998366
0.0152544 43.556 93.616 0.000876065 0.00725152 0.999973
-1.55474 43.6734 93.5799 -0.0492957 0.0233047 0.998511
-2.96562 43.6514 93.4987 -0.0868594 0.0226854 0.995823
-4.62931 43.8514 93.3224 -0.114912 0.0227804 0.992989
-4.81486 43.897 93.298 -0.145096 0.021803 0.988982
-5.12008 43.064 93.2701 -0.134893 0.00975989 0.990771
-3.95304 42.8972 93.4222 -0.11346 0.0226038 0.993173
-2.28209 42.9233 93.5586 -0.0726526 0.0129631 0.997273
-0.645183 42.9122 93.6186 -0.0222666 0.00174172 0.999751
0.373097 42.8682 93.62 0.00218049 0.00680456 0.999974
1.37727 42.8243 93.606 0.046964 0.00708531 0.998366
2.39767 42.8384 93.5269 0.0776542 0.0174526 0.996827
3.4661 42.9763 93.4372 0.109397 0.0125925 0.993642
4.48389 43.0564 93.3002 0.131936 0.0142852 0.991155
5.13817 44.4615 93.2 0.149521 0.0121687 0.98845
4.00726 44.646 93.3576 0.123153 0.00953033 0.992183
2.55884 44.9181 93.5012 0.087731 0.00805664 0.996016
0.800631 44.6744 93.6081 0.0496603 0.0191564 0.998582
-0.274428 44.7853 93.6113 -0.029725 0.0202932 0.999352
-1.26366 44.9275 93.5784 -0.0419106 0.015738 0.998929
-2.28387 45.0414 93.5194 -0.0719595 0.0237749 0.997124
-3.33256 45.0943 93.4421 -0.0868816 0.014538 0.995965
-4.38622 45.0559 93.3279 -0.137182 0.0262605 0.990197
-5.38469 44.8256 93.1949 -0.148395 0.0178117 0.98868
-5.75459 43.8941 93.1446 -0.158645 0.00960419 0.987289
-5.20311 43.078 93.2581 -0.151431 0.00903594 0.988369
-5.12962 42.2822 93.2721 -0.144779 0.014219 0.989307
-6.33389 42.6875 93.0705 -0.181887 0.00216207 0.983316
-6.52802 44.3119 93.0162 -0.165163 0.0124033 0.986162
-6.11685 45.2162 93.0735 -0.165014 0.0126303 0.986184
-4.87252 45.7055 93.2433 -0.137988 0.0259338 0.990094
-3.76552 45.7721 93.3944 -0.120009 0.00721089 0.99257
-2.70714 45.7644 93.4729 -0.0742196 -0.00402168 0.997234
-1.66243 45.6963 93.5497 -0.0550916 0.00555436 0.998237
-0.647466 45.5935 93.5839 -0.0312332 0.0135053 0.99942
0.459826 45.4966 93.6083 0.0480583 0.0138412 0.99873
2.24061 45.5277 93.5212 0.0666661 0.0164658 0.997456
3.2977 45.5193 93.4181 0.103576 0.0173693 0.994461
4.46686 45.4616 93.2923 0.116683 0.0233194 0.992848
5.93585 44.8953 93.0567 0.173532 0.00570791 0.984763
6.07327 43.8324 93.0494 0.171286 0.0156161 0.985096
5.46116 42.4032 93.1794 0.152698 0.0155274 0.987927
3.73937 42.2616 93.4118 0.132524 0.0153791 0.99106
2.58362 42.175 93.5216 0.085665 0.00994714 0.996274
1.19038 42.1692 93.6076 0.017598 -0.00220002 0.999843
0.0900626 42.187 93.6247 0.00754972 0.00148102 0.999942
-1.14808 42.1687 93.6089 -0.0246097 -0.000352036 0.999691
-2.18052 42.19 93.5752 -0.053451 0.0118297 0.998322
-3.43994 42.1605 93.4835 -0.083209 0.00349861 0.996442
-4.48058 42.2094 93.3649 -0.12512 0.0135504 0.992049
-4.71884 42.225 93.3348 -0.136049 0.0190892 0.990437
-4.90346 41.5309 93.3215 -0.14598 0.00355577 0.988981
-6.12917 41.6445 93.1102 -0.178728 -0.00394934 0.983871
-7.08724 42.3597 92.9229 -0.207513 -0.00258428 0.978229
-7.25483 43.4325 92.8909 -0.206342 -0.00579264 0.978461
-7.22044 44.9167 92.8861 -0.178056 0.0186906 0.983816
-6.72209 45.9484 92.9566 -0.17178 0.0157211 0.98501
-5.58936 46.3324 93.1475 -0.152558 0.00656163 0.988049
-4.46444 46.4348 93.3008 -0.135275 -0.00322561 0.990803
-3.27711 46.4727 93.4334 -0.0890908 0.00687386 0.995824
-2.15717 46.4435 93.517 -0.0741309 -0.00472694 0.997237
-1.12598 46.3731 93.5583 -0.0343595 0.0146479 0.999298
-0.0481823 46.2813 93.5924 -0.00985506 0.0234275 0.999428
1.8472 46.236 93.5354 0.0492378 0.00800753 0.998755
2.85457 46.2543 93.4513 0.083331 0.0253936 0.996198
4.11331 46.2017 93.3165 0.116683 0.0233194 0.992848
5.17826 46.1818 93.1791 0.159198 0.014145 0.987068
6.66659 45.5058 92.9197 0.178441 0.0107514 0.983879
6.80048 44.4142 92.9119 0.180282 0.00841136 0.983544
6.80427 43.2661 92.9221 0.187903 0.0152319 0.98207
6.4695 41.8654 92.9961 0.18284 0.00395826 0.983135
5.50752 41.6162 93.1818 0.161163 0.011955 0.986516
4.38502 41.5648 93.3362 0.13394 0.013109 0.9909
2.92531 41.5078 93.4987 0.0871087 0.00931548 0.996155
1.81015 41.4788 93.5943 0.0641204 0.00326913 0.997713
0.749051 41.4996 93.6156 0.0143053 0.0140297 0.999799
-0.378884 41.5018 93.6294 -0.0168985 0.0114128 0.999627
-1.40991 41.4693 93.5997 -0.0279713 -0.00292098 0.999603
-2.89341 41.4574 93.5317 -0.0834305 0.00369948 0.996421
-3.96262 41.4759 93.4313 -0.093604 -0.00465776 0.995599
-4.24175 41.4896 93.4052 -0.109093 0.0050501 0.993849
-4.51695 40.8154 93.3787 -0.108987 0.00832547 0.993825
-5.67381 40.8859 93.191 -0.167765 0.0219532 0.985582
-6.72444 40.9324 93.0016 -0.195079 0.0152161 0.980655
-7.70319 41.5115 92.7903 -0.205621 0.0077777 0.978547
-7.92746 42.5213 92.7454 -0.206327 -0.00352107 0.978477
-7.97666 43.5912 92.7398 -0.206089 -0.00791179 0.978501
-7.96863 44.9434 92.7451 -0.195675 0.0127282 0.980476
-7.81629 46.0865 92.746 -0.215108 0.0320302 0.976055
-7.00102 46.8923 92.8929 -0.172244 0.0133859 0.984962
-6.01235 47.0487 93.0636 -0.170892 0.0141242 0.985189
-4.63969 47.1297 93.2793 -0.119792 0.00637258 0.992613
-3.55757 47.1783 93.3923 -0.103944 0.0164407 0.994447
-2.52137 47.1639 93.4935 -0.0558534 0.00599632 0.998177
-1.47808 47.1134 93.5328 -0.0362986 0.0171927 0.999193
-0.446191 47.0439 93.5701 -0.0106754 0.0237977 0.999411
1.31413 46.9641 93.5556 0.0295292 0.0206836 0.999083
2.31953 46.9803 93.4776 0.0836191 0.0255631 0.99617
3.90758 46.9472 93.3318 0.108683 0.00403565 0.994034
4.91195 46.9646 93.2109 0.141463 0.00773508 0.989695
6.61556 46.8945 92.9129 0.183841 0.0134823 0.982864
7.34469 46.2155 92.7762 0.209737 0.0122107 0.97765
7.49643 45.0641 92.7584 0.225434 0.0186426 0.974071
7.52949 43.8164 92.772 0.232862 0.0110713 0.972418
7.52671 42.6622 92.7823 0.23973 0.00948555 0.970792
7.36505 41.338 92.831 0.23597 0.00639199 0.971739
6.44228 40.9459 93.0127 0.187275 0.0126912 0.982225
4.96172 40.8705 93.2649 0.13612 0.0109965 0.990631
3.76486 40.8387 93.4294 0.114279 0.00845306 0.993165
2.26701 40.782 93.5612 0.0846298 0.00817315 0.996379
1.24111 40.7928 93.618 0.0314489 0.00720918 0.999366
0.213213 40.7951 93.6331 0.00703758 0.00983981 0.999894
-1.06238 40.7868 93.6186 -0.0334603 0.0179617 0.999278
-2.29669 40.7605 93.5776 -0.0454944 0.00917658 0.99881
-3.44071 40.7656 93.481 -0.0948215 0.0196283 0.995301
-3.65283 40.772 93.4607 -0.0939703 0.0196036 0.995382
-4.00456 40.0895 93.441 -0.109191 0.0086937 0.993799
-5.05058 40.1453 93.31 -0.125679 -0.00384501 0.992063
-6.18597 40.1851 93.1154 -0.18987 0.0109521 0.981747
-7.21913 40.2099 92.9138 -0.197244 0.0145111 0.980226
-8.35025 40.667 92.6618 -0.228341 0.00767134 0.973551
-8.59657 41.6438 92.5982 -0.219848 -0.00323067 0.975514
-8.6513 42.7271 92.5936 -0.206539 -0.00377929 0.978431
-8.69801 43.9823 92.5906 -0.21764 0.00205408 0.97591
-8.63933 45.4522 92.5854 -0.226995 0.0254321 0.973495
-8.31344 47.0662 92.6316 -0.202184 0.00315891 0.97934
-7.07611 47.7236 92.8686 -0.193738 0.0171552 0.980903
-6.05823 47.7807 93.0467 -0.170842 0.0113617 0.985232
-4.96465 47.8276 93.2337 -0.141061 0.0164607 0.989519
-3.89543 47.8959 93.3496 -0.105735 0.00539677 0.99438
-2.26528 47.8533 93.5021 -0.0565683 0.00945914 0.998106
-1.20738 47.8086 93.5458 -0.0401438 -0.00788942 0.999157
-0.190257 47.753 93.5636 0.000214354 0.00241208 0.999959
1.14569 47.6979 93.5541 0.0358999 0.00847584 0.998851
2.79666 47.7154 93.4309 0.0813408 0.00823252 0.996652
3.8584 47.6993 93.3344 0.103766 0.00439607 0.994501
4.97269 47.728 93.188 0.162508 0.0181564 0.986539
6.00274 47.7201 93.0172 0.174965 0.0163272 0.98439
6.99466 47.6643 92.825 0.197607 0.0176611 0.980122
8.03045 46.8319 92.6177 0.220951 0.00953735 0.975237
8.162 45.8087 92.5963 0.223526 0.0056982 0.974677
8.18741 44.602 92.6037 0.228177 0.0155987 0.973495
8.24293 43.2135 92.6001 0.241185 0.00628612 0.970455
8.24921 41.992 92.6117 0.242598 0.00883445 0.970083
8.15578 40.7671 92.6434 0.236629 0.00864817 0.97156
7.30076 40.2307 92.8583 0.242358 0.00671868 0.97016
5.71193 40.1485 93.1629 0.185661 0.0143429 0.982509
4.0675 40.1431 93.3966 0.135034 0.0135192 0.990748
3.02965 40.0938 93.5014 0.0904295 0.00603175 0.995881
1.5325 40.0848 93.607 0.0468658 0.00105802 0.998897
0.130145 40.1016 93.6371 0.00634456 0.00357316 0.999952
-0.898491 40.0944 93.6368 -0.0169708 0.011727 0.999638
-1.93163 40.0677 93.5979 -0.0559447 -0.000777867 0.998433
-3.00265 40.059 93.5368 -0.0764101 0.00955254 0.996802
-3.4158 39.3688 93.5117 -0.071886 0.0101239 0.997189
-4.52794 39.4106 93.3735 -0.122953 0.0248793 0.992101
-5.54791 39.4536 93.2444 -0.136433 0.0172407 0.990389
-6.62997 39.4754 93.0397 -0.189975 0.0297752 0.981337
-7.64876 39.4838 92.8384 -0.214618 0.0255005 0.976299
-8.62812 39.556 92.609 -0.228823 0.0267598 0.973099
-9.30745 40.7152 92.4326 -0.239398 0.0038884 0.970862
-9.35033 41.7166 92.4283 -0.2437 0.00163142 0.969838
-9.35229 42.7339 92.4206 -0.24443 -0.00510345 0.969577
-9.38739 43.8117 92.414 -0.277645 0.0119689 0.960603
-9.37164 44.8323 92.4089 -0.277518 0.0131286 0.960621
-9.3079 45.8607 92.4112 -0.272936 0.00859758 0.961992
-9.10147 47.5767 92.4501 -0.277502 0.0167843 0.960576
-8.19443 48.3973 92.6347 -0.199665 0.0149556 0.979739
-7.17643 48.4686 92.8358 -0.192362 0.0140249 0.981218
-5.91195 48.528 93.0609 -0.169062 0.0187788 0.985426
-4.55536 48.601 93.2684 -0.115666 0.015396 0.993168
-3.33161 48.6151 93.4043 -0.0959497 0.0128279 0.995252
-1.87286 48.5252 93.5206 -0.0589111 0.00411013 0.998093
-0.797203 48.4901 93.5551 -0.0129406 0.00772638 0.999865
0.226868 48.4596 93.5626 -0.000660294 0.00101344 0.999972
1.70272 48.4397 93.5075 0.0647813 0.0120993 0.997823
3.30863 48.4616 93.3762 0.0917006 0.0118163 0.995717
4.39785 48.477 93.2712 0.147358 0.0155842 0.988805
5.40588 48.4749 93.1047 0.165303 0.00832619 0.986208
6.39206 48.4675 92.9337 0.190143 0.014561 0.981619
8.04415 48.2753 92.603 0.214088 0.0204452 0.976428
8.73395 47.519 92.427 0.280054 0.0214972 0.959742
8.80812 46.4574 92.4215 0.279011 0.00984976 0.960237
8.85205 45.386 92.4222 0.282551 0.0112377 0.959181
8.94352 43.7279 92.417 0.275769 0.0226667 0.960939
8.94121 42.6365 92.4321 0.285159 0.00579964 0.958426
8.96419 41.2879 92.4366 0.244189 0.00678114 0.969704
8.94529 40.0858 92.4472 0.27897 0.0058444 0.960273
8.03327 39.5352 92.6829 0.236423 0.0323457 0.971088
6.81366 39.4359 92.9632 0.189286 0.0131773 0.981833
5.60801 39.4223 93.1925 0.162981 0.0127062 0.986289
4.58885 39.4494 93.3358 0.134363 0.0123863 0.990854
3.39489 39.4 93.4719 0.0937618 0.00617188 0.995575
2.34699 39.3684 93.5665 0.0752593 0.00827222 0.997
1.3455 39.3985 93.6191 0.0458687 0.0078793 0.998898
0.11324 39.4059 93.6432 0.00475626 0.0189963 0.999787
-1.07865 39.3877 93.6412 -0.00913305 0.00944138 0.999871
-2.24794 39.3623 93.5805 -0.0575564 0.0235297 0.998064
-2.30455 39.3623 93.5772 -0.0584759 0.0230095 0.998024
-2.72432 38.6688 93.5686 -0.0716687 0.0102538 0.997158
-3.92712 38.6903 93.466 -0.103959 0.0110118 0.994241
-5.0078 38.6928 93.3321 -0.135821 0.019238 0.990421
-6.04154 38.7138 93.1768 -0.169336 0.020078 0.985076
-7.04887 38.7048 92.9799 -0.204929 0.0191039 0.97859
-8.07287 38.6791 92.7659 -0.217398 0.0254544 0.975646
-9.13018 38.7386 92.5043 -0.270828 0.00170842 0.962626
-10.0582 39.7558 92.2303 -0.285501 0.000156142 0.958274
-10.0829 41.0493 92.2421 -0.270152 -0.0105333 0.96234
-10.0819 42.2532 92.241 -0.265036 0.0142939 0.963843
-10.1831 43.9861 92.1814 -0.280002 0.013512 0.959903
-10.1108 45.1579 92.19 -0.281367 0.0100086 0.959548
-10.0236 46.2628 92.2035 -0.281471 0.0104137 0.959513
-10.0055 47.3015 92.1953 -0.27203 0.0077953 0.962199
-9.74317 48.449 92.2494 -0.264178 0.0103382 0.964419
-9.04133 49.3023 92.4298 -0.260003 0.0200044 0.965397
-8.01702 49.246 92.6615 -0.200089 0.00511132 0.979741
-6.78132 49.2046 92.9077 -0.177455 0.00378034 0.98397
-5.64366 49.3358 93.0914 -0.162855 0.0119665 0.98654
-4.30889 49.3972 93.2862 -0.111578 0.0153281 0.993627
-3.00763 49.384 93.4177 -0.0978024 0.0113523 0.99504
-1.8476 49.3454 93.5195 -0.0520064 0.00698857 0.998206
-0.68006 49.3203 93.5459 -0.0238091 0.0156005 0.999576
0.405776 49.3252 93.562 0.0136844 0.00591719 0.999639
1.58096 49.3371 93.5127 0.0488819 -0.00426467 0.998679
2.72242 49.2388 93.4264 0.0880844 0.00153707 0.996111
3.86873 49.2555 93.3225 0.090837 0.00192818 0.995864
4.86344 49.2838 93.189 0.148587 0.0159931 0.988587
6.58311 49.2967 92.8828 0.183447 0.0182067 0.982861
7.82033 49.2809 92.6265 0.230345 0.0296003 0.972659
8.78137 49.0017 92.4033 0.277107 -0.0015788 0.960838
9.62632 47.8786 92.1576 0.279847 0.00925366 0.959936
9.58814 46.7588 92.1881 0.290994 0.0104062 0.956668
9.60195 45.5842 92.1967 0.290389 0.00942833 0.956861
9.70685 44.2844 92.1824 0.28073 0.0204866 0.959568
9.79933 43.2576 92.1708 0.291331 0.000334706 0.956622
9.67168 41.727 92.2243 0.287609 0.0124072 0.957661
9.7261 40.3978 92.2184 0.287802 0.00662501 0.957665
9.86204 39.3965 92.1842 0.289266 0.006072 0.95723
9.02957 38.5865 92.4388 0.274285 -0.00167441 0.961529
7.95735 38.8267 92.725 0.236423 0.0323457 0.971088
6.48929 38.6372 93.0386 0.182856 0.0207804 0.982914
5.00511 38.6747 93.2878 0.136563 0.00950639 0.990571
3.86387 38.6173 93.4414 0.116681 0.0166475 0.992829
2.65649 38.6359 93.5498 0.0704973 0.0136996 0.997295
1.54375 38.6533 93.6168 0.050695 0.0108274 0.99857
0.516205 38.6091 93.6556 0.00863135 0.0135064 0.999823
-0.501816 38.6641 93.6525 -0.0156802 0.00321816 0.999872
-1.5244 38.6515 93.6364 -0.0156802 0.0034808 0.999871
-1.58955 38.6515 93.6353 -0.0368917 0.014922 0.998915
