-18.036 43.6947 95.164 -0.468513 0.0028107 0.883444
-16.7905 43.6512 95.7967 -0.417376 0.00348534 0.908575
-16.0432 43.5593 96.1319 -0.408113 0.0162804 0.912786
-14.9281 43.7549 96.6202 -0.4009 0.0156386 0.915988
-13.993 43.56 97.0197 -0.334604 0.00872774 0.942311
-12.5553 43.5655 97.526 -0.331706 0.011868 0.943308
-11.586 43.5939 97.8195 -0.285909 -0.0012134 0.958256
-10.5888 43.6516 98.1029 -0.256804 0.00289303 0.966352
-9.54405 43.7149 98.3666 -0.243852 -0.00436452 0.969802
-8.46927 43.7649 98.6003 -0.192549 0.0108334 0.981194
-7.37817 43.7047 98.8067 -0.185449 0.0065485 0.982632
-7.06228 44.082 98.8569 -0.157468 0.0145837 0.987416
-8.13809 44.2645 98.6597 -0.192294 0.0113093 0.981235
-9.18248 44.308 98.4466 -0.200742 0.0170896 0.979493
-10.2299 44.2799 98.1964 -0.256481 0.0030049 0.966432
-11.3118 44.1896 97.8954 -0.269531 0.0108779 0.96293
-12.4286 43.732 97.5686 -0.308982 0.00485435 0.950719
-13.2453 44.3936 97.2727 -0.333867 0.013744 0.94252
-14.1398 43.884 96.9633 -0.367892 0.013473 0.929049
-14.9397 44.4163 96.6055 -0.402493 0.00975551 0.915367
-15.9632 44.4762 96.1513 -0.406728 0.0147154 0.913428
-17.0946 44.4807 95.6464 -0.429605 0.0225918 0.902382
-17.5928 44.4782 95.3941 -0.46072 0.0173603 0.887252
-17.752 45.3012 95.2865 -0.453406 0.0300762 0.890795
-16.5435 45.2653 95.8798 -0.411683 0.0192794 0.911107
-15.094 45.154 96.5292 -0.407159 0.0118956 0.91328
-13.5373 45.1194 97.1587 -0.33387 0.0137673 0.942519
-12.2104 45.0179 97.6315 -0.317241 0.010616 0.948047
-10.9949 45.045 97.9769 -0.268532 -0.0065798 0.963248
-9.88299 45.0817 98.2862 -0.25379 0.00179365 0.967116
-8.76561 45.0787 98.5199 -0.199227 -0.0119706 0.979879
-7.65516 45.0046 98.7458 -0.192294 0.0113093 0.981235
-6.56041 44.9697 98.9271 -0.161852 0.00251733 0.986812
-4.8412 45.0129 99.159 -0.10155 0.0108032 0.994763
-3.66397 44.9796 99.2698 -0.0783708 0.0125174 0.996846
-2.42498 45.0934 99.363 -0.0703778 0.0100756 0.997455
-1.34785 45.0816 99.4089 -0.0294832 0.000927306 0.999558
0.0643713 45.034 99.4262 0.00461701 0.00977476 0.999942
1.09108 45.0297 99.4083 0.0282209 0.00901085 0.999561
2.34168 45.1042 99.3718 0.0560087 0.0076599 0.998036
3.45826 45.0756 99.2788 0.0847025 0.00929409 0.996358
4.92083 45.0721 99.1207 0.126271 0.00817503 0.991962
6.43684 44.9828 98.9076 0.154134 0.00852292 0.988013
7.87563 44.9961 98.6597 0.20156 0.0117673 0.979405
9.06946 45.0622 98.4071 0.234417 0.0151234 0.971668
10.3702 45.14 98.0548 0.261398 0.0143135 0.965125
11.5772 45.1828 97.7073 0.295334 0.0152461 0.95519
12.6519 45.168 97.3639 0.30441 0.0231087 0.952261
13.6628 45.1216 97.0174 0.353349 0.0104095 0.935123
14.6299 45.0865 96.6262 0.377403 0.0182508 0.925868
15.6396 45.1854 96.2094 0.407315 0.0160012 0.912688
17.2646 45.2552 95.4172 0.438332 0.02431 0.898484
18.557 44.9579 94.7513 0.466584 0.0148298 0.884326
18.7596 43.2297 94.6557 0.491399 0.00785177 0.870888
17.9981 42.7242 95.0755 0.47659 0.0101061 0.879067
16.6267 42.7417 95.7807 0.430111 0.0117395 0.902677
15.2864 42.7897 96.3848 0.380684 0.000742667 0.924697
14.2787 42.7925 96.7946 0.376292 0.00311203 0.926496
13.208 42.81 97.1762 0.331473 -0.00384507 0.943456
11.9093 42.8345 97.623 0.316843 -0.00776787 0.948441
10.5043 42.8635 98.0396 0.263887 0.00519245 0.96454
9.36956 42.8805 98.35 0.265505 0.0113008 0.964022
8.25706 42.98 98.5951 0.213753 0.011654 0.976818
6.93793 42.9659 98.8509 0.162494 0.00846023 0.98665
5.82316 43.0003 99.0272 0.139504 0.0133543 0.989982
4.32089 42.9465 99.2122 0.123756 0.0103962 0.992251
3.2777 42.986 99.3084 0.0839749 0.0131865 0.996378
1.80627 42.9339 99.4067 0.0379225 0.00831301 0.999236
0.785122 42.9012 99.436 0.0259083 0.0120915 0.99959
-0.545754 42.8767 99.4404 -0.00431299 0.00855956 0.999954
-1.54142 43.0153 99.4318 -0.0512241 0.0105295 0.998537
-2.77959 43.0842 99.3543 -0.0613446 0.019927 0.997918
-4.17427 42.9799 99.2479 -0.0928919 0.013554 0.995578
-5.18487 43.0085 99.1499 -0.119681 0.00922248 0.992463
-6.81054 42.9042 98.9147 -0.150256 0.00887024 0.988564
-7.89346 42.8917 98.7157 -0.184165 0.0161153 0.982763
-9.08159 42.8535 98.4829 -0.234084 0.00781031 0.972112
-10.1043 42.8152 98.2264 -0.244971 0.0148421 0.969416
-11.0955 42.7874 97.9711 -0.27467 0.0164935 0.96126
-12.06 42.7804 97.6806 -0.283975 0.0155924 0.95864
-13.0412 42.8393 97.3643 -0.334173 0.00914101 0.94246
-14.1668 42.7859 96.9621 -0.366448 0.00657716 0.929856
-15.7081 42.7608 96.2958 -0.399008 0.0113038 0.916863
-17.1795 42.7948 95.6045 -0.427331 -0.00825006 0.904057
-18.1989 42.8213 95.0763 -0.46786 -0.00150432 0.883801
-18.8945 43.4733 94.708 -0.491217 0.010505 0.870631
-18.8966 44.5052 94.6884 -0.512462 0.016352 0.858554
-18.3778 45.2072 94.9701 -0.46246 0.0189389 0.886321
-18.4929 46.0226 94.9048 -0.48273 0.00547218 0.87461
-19.3546 45.5721 94.3902 -0.514647 0.0233438 0.857084
-19.6468 44.028 94.2495 -0.520571 0.00482686 0.85368
-19.5902 42.9744 94.2768 -0.532206 0.00641848 0.846475
-19.1333 42.1041 94.588 -0.501203 0.012574 0.864139
-17.7205 41.9892 95.3274 -0.465246 0.000271851 0.885174
-16.6164 41.9663 95.8716 -0.438557 0.0142961 0.898589
-15.3082 41.9697 96.4767 -0.394033 0.0138927 0.918989
-14.1491 41.989 96.9741 -0.36618 0.00560116 0.929982
-12.7527 42.0176 97.4736 -0.337319 0.00853635 0.941352
-11.6126 42.0005 97.8365 -0.277488 0.0157311 0.960459
-10.4785 41.9718 98.1446 -0.252643 0.0105284 0.967456
-9.49805 41.995 98.3878 -0.22534 0.000759915 0.974279
-8.25691 42.0402 98.6612 -0.184831 0.0155889 0.982647
-6.7442 42.0937 98.9391 -0.157512 0.0171657 0.987139
-4.94804 42.1299 99.1866 -0.128368 0.0147457 0.991551
-3.59045 42.1862 99.3099 -0.089313 0.0108694 0.995944
-2.26904 42.1939 99.4032 -0.0566243 0.015733 0.998254
-1.2349 42.1647 99.4456 -0.0223491 0.00651831 0.999541
-0.177815 42.0879 99.4503 -0.00404355 0.0114038 0.999927
0.920646 42.0572 99.4437 0.0320951 0.00775051 0.999422
2.10785 42.0872 99.3976 0.0377044 0.00654863 0.999257
3.35152 42.1491 99.3133 0.0839749 0.0131865 0.996378
4.47959 42.1202 99.2059 0.122858 0.0170282 0.992278
5.78851 42.1306 99.0424 0.123477 0.0146988 0.992235
6.80077 42.1479 98.876 0.166346 0.00166935 0.986066
8.68162 42.1007 98.5131 0.219376 0.00838065 0.975576
9.78515 42.0553 98.2497 0.266731 0.0177892 0.963607
10.9136 42.0194 97.9381 0.27471 0.0110019 0.961403
11.9727 41.9998 97.6022 0.316641 0.0160676 0.948409
13.4698 42.0091 97.0821 0.334588 0.00559141 0.942299
14.6862 41.9913 96.6319 0.378484 0.00146652 0.925602
15.7011 41.9951 96.2127 0.39963 -0.00493909 0.916478
17.1752 41.9336 95.5284 0.449829 0.00751039 0.892679
18.5998 41.9619 94.7579 0.48262 0.00900889 0.875759
19.3817 42.4552 94.3157 0.48832 0.00831547 0.872625
19.6018 43.5253 94.1784 0.49075 0.012085 0.871216
19.5721 44.5883 94.187 0.496859 0.0105291 0.867747
18.8881 45.8265 94.5567 0.481217 0.0198516 0.876163
17.7558 46.0052 95.1459 0.463621 0.0211624 0.885777
16.6086 45.9861 95.7179 0.438835 0.0243547 0.898237
15.6784 45.9749 96.1789 0.418112 0.00417806 0.907843
14.5394 45.9339 96.6481 0.377744 0.00808951 0.925871
13.5008 45.9702 97.0668 0.365011 0.0156396 0.930798
12.4088 45.9854 97.4259 0.303836 -0.0029166 0.95272
11.1291 45.9679 97.8341 0.298224 0.00312195 0.954454
9.96514 45.9497 98.1519 0.260741 0.0155898 0.965283
8.19199 45.8668 98.5813 0.205536 0.0168096 0.978503
7.00412 45.8326 98.8116 0.155079 0.00885002 0.987862
5.69912 45.8734 99.014 0.13995 0.00914626 0.990035
4.07493 45.9078 99.2154 0.119999 0.0133264 0.992684
2.78613 45.8997 99.3264 0.0847774 0.0125331 0.996321
1.68923 45.8793 99.3835 0.0299147 0.012463 0.999468
0.533238 45.8645 99.4163 0.0162664 0.00921209 0.999754
-0.743642 45.9292 99.4172 -0.00943457 0.0178373 0.999752
-2.47967 45.8884 99.3504 -0.0655108 0.012063 0.997725
-4.08965 45.8435 99.2254 -0.0752931 0.00965779 0.997106
-5.31706 45.8361 99.0992 -0.107205 0.0127038 0.994153
-6.65001 45.8362 98.9101 -0.162968 0.00487146 0.986616
-8.16621 45.887 98.65 -0.185627 -0.00183616 0.982498
-9.24232 45.8945 98.433 -0.199227 -0.0119706 0.979879
-10.3091 45.8819 98.1729 -0.25379 0.00179365 0.967116
-11.3907 45.8877 97.8723 -0.268532 -0.0065798 0.963248
-12.3978 45.8926 97.559 -0.317241 0.010616 0.948047
-13.3561 45.9523 97.2157 -0.336909 0.00585487 0.941519
-14.8001 45.9646 96.6495 -0.406957 0.00980949 0.913392
-16.0573 45.9928 96.0893 -0.415211 0.0101612 0.909622
-17.6219 46.0999 95.335 -0.442638 0.00313498 0.896694
-18.08 46.0758 95.1095 -0.442875 0.00106283 0.89658
-18.3611 46.8533 94.9692 -0.474426 0.00904876 0.879413
-19.2174 46.7527 94.4625 -0.522443 0.000460937 0.852655
-20.0448 46.3679 93.9549 -0.539016 0.025931 0.841376
-20.3292 44.6599 93.8228 -0.568186 0.024989 0.822489
-20.3134 43.5789 93.8312 -0.528371 -0.00645681 0.848989
-20.2821 42.571 93.8433 -0.534014 0.00691631 0.845319
-19.8688 41.4288 94.136 -0.539185 0.0210797 0.841924
-18.6647 41.1944 94.8374 -0.470078 0.00899311 0.882555
-17.7455 41.1811 95.326 -0.461111 0.0165975 0.887167
-16.7602 41.1774 95.8173 -0.435319 0.024584 0.89994
-15.2884 41.1768 96.4988 -0.39758 0.0121767 0.917474
-14.2067 41.1762 96.9568 -0.369658 0.00868603 0.928859
-13.1389 41.193 97.3442 -0.336646 0.0167261 0.941482
-12.1437 41.2475 97.6954 -0.277488 0.0157311 0.960459
-11.1744 41.1791 97.9627 -0.267325 0.0188527 0.963403
-10.155 41.1576 98.2385 -0.24112 0.0205346 0.970114
-8.92098 41.1832 98.5221 -0.22421 0.0135739 0.974374
-7.41957 41.2463 98.8271 -0.178741 0.0112852 0.983831
-5.72214 41.2723 99.099 -0.129403 0.0140355 0.991435
-4.71768 41.288 99.2205 -0.104907 0.0111618 0.994296
-2.91769 41.3892 99.3778 -0.0872561 0.0133596 0.99609
-1.82746 41.3341 99.4367 -0.0368373 0.00806654 0.999171
-0.673218 41.2942 99.4571 -0.00426581 0.011271 0.999927
0.389284 41.2468 99.4619 0.0155235 0.0111272 0.999747
1.43554 41.2325 99.4336 0.0391744 0.0139001 0.999136
3.2948 41.3016 99.327 0.0743698 0.0106895 0.997173
4.4777 41.2459 99.2214 0.126576 0.0110385 0.991868
5.55139 41.2772 99.0795 0.1319 0.00486519 0.991251
6.87592 41.3181 98.8668 0.168805 0.00742859 0.985622
7.95304 41.3218 98.6828 0.19005 0.00726468 0.981437
9.02049 41.2364 98.4382 0.225017 0.003779 0.974347
10.2352 41.2056 98.1404 0.268462 0.0143509 0.963177
11.5011 41.2007 97.7695 0.285005 0.0170807 0.958371
12.5302 41.1561 97.4308 0.324829 0.0141953 0.945616
13.8089 41.2056 96.9712 0.343175 0.0147355 0.939156
15.2952 41.1991 96.389 0.381584 0.0197894 0.924122
16.4201 41.1804 95.8923 0.417256 0.0107662 0.908665
17.5006 41.1396 95.359 0.473773 0.00635774 0.880624
18.5341 41.1225 94.8043 0.48393 0.0148042 0.874835
19.8116 41.3447 94.0807 0.491009 0.00188803 0.871152
20.2411 42.2182 93.8264 0.535756 0.0178702 0.84409
20.3064 44.062 93.7691 0.544006 0.0118344 0.83898
20.2592 45.1066 93.7815 0.499391 0.0157146 0.866234
19.6882 46.5648 94.0824 0.498164 0.0173036 0.86691
18.4177 46.7876 94.7801 0.466072 0.0142513 0.884606
17.1052 46.7995 95.4763 0.457115 0.000570777 0.889294
16.0951 46.7674 95.9785 0.444668 -0.00734089 0.895665
15.0753 46.7625 96.4221 0.385694 0.0111338 0.922526
14.0423 46.7914 96.8407 0.36621 0.015843 0.930326
13.0351 46.807 97.2243 0.355524 0.0215553 0.934418
11.9162 46.811 97.5853 0.29832 0.00422551 0.954426
10.8818 46.793 97.9019 0.273746 0.00506788 0.961583
9.35573 46.7535 98.3029 0.256733 0.00921403 0.966412
8.16335 46.7002 98.5746 0.207354 0.0122475 0.978189
7.16518 46.671 98.7784 0.155449 0.00910337 0.987802
5.98995 46.6987 98.9615 0.151259 0.00916714 0.988451
4.85835 46.732 99.11 0.119628 0.00459611 0.992808
3.77003 46.7421 99.2318 0.0858616 0.0119224 0.996236
2.46733 46.6966 99.3431 0.0842074 0.0114577 0.996382
0.858894 46.69 99.397 0.0344204 0.0109719 0.999332
-0.386305 46.7246 99.411 -0.000580643 -0.000958889 0.999999
-1.81403 46.7504 99.3749 -0.0554582 0.0143767 0.998357
-3.3752 46.6988 99.2711 -0.0751957 0.00971386 0.997113
-4.5326 46.6809 99.179 -0.106939 0.00177387 0.994263
-5.82232 46.6553 99.0351 -0.122826 0.0105025 0.992288
-6.92151 46.6756 98.8591 -0.164971 0.00663119 0.986276
-7.99799 46.7106 98.6745 -0.173554 0.00579907 0.984807
-9.70275 46.7071 98.3145 -0.239067 0.0100516 0.970951
-10.6891 46.7052 98.072 -0.253131 0.00169578 0.967285
-11.6505 46.7134 97.7793 -0.297343 0.0148454 0.954655
-13.059 46.7647 97.317 -0.340642 0.00982626 0.940125
-14.3373 46.7857 96.8467 -0.344986 0.0130324 0.938517
-15.8505 46.7833 96.1729 -0.406409 0.00513265 0.91367
-16.8198 46.8624 95.7262 -0.431672 0.0065887 0.901943
-17.7623 46.8767 95.2636 -0.440769 0.00241288 0.897617
-17.3597 47.6508 95.4583 -0.437673 0.0058652 0.899106
-16.3175 47.603 95.9619 -0.42977 0.00386968 0.902902
-15.2529 47.5739 96.4375 -0.404127 -0.0032943 0.914692
-14.0169 47.5978 96.9535 -0.346795 0.006349 0.937897
-12.7923 47.5784 97.4089 -0.331346 0.00421625 0.943321
-11.3847 47.5228 97.8604 -0.30033 -0.00204269 0.953831
-10.3971 47.5295 98.1401 -0.247579 0.00860998 0.968768
-9.23326 47.5272 98.4266 -0.223413 0.0117866 0.974483
-8.21514 47.5423 98.6317 -0.172641 0.00574099 0.984967
-6.48234 47.4822 98.9243 -0.162568 0.0090503 0.986655
-5.31032 47.4842 99.0882 -0.128821 0.0148398 0.991541
-3.7912 47.5466 99.2351 -0.0727152 0.00758052 0.997324
-2.74129 47.5307 99.3111 -0.0725943 0.00538325 0.997346
-1.39975 47.5562 99.3872 -0.0546843 0.0133399 0.998414
-0.264474 47.549 99.4122 0.00813066 0.00433846 0.999892
0.801897 47.5503 99.3938 0.0272886 0.00883062 0.999535
2.16215 47.5294 99.3428 0.034755 0.010855 0.99932
3.21844 47.5235 99.2715 0.0812056 0.00460619 0.996687
4.45583 47.5743 99.1539 0.10344 0.0131735 0.994425
5.58373 47.5387 99.0148 0.148136 0.0142662 0.988856
6.7323 47.5155 98.8394 0.153242 0.00987326 0.988135
7.98329 47.5342 98.6023 0.205937 0.010592 0.978506
9.03103 47.5567 98.3801 0.228064 0.0114563 0.973345
10.1632 47.6076 98.0889 0.251522 0.00535941 0.967829
11.4602 47.6236 97.7171 0.292161 0.00962819 0.95632
12.5997 47.6266 97.3681 0.29832 0.00422551 0.954426
13.5858 47.643 96.9955 0.355524 0.0215553 0.934418
14.645 47.5855 96.5876 0.38165 0.0138725 0.924173
15.6588 47.5543 96.1602 0.391258 0.0156513 0.920148
16.6283 47.5728 95.7201 0.45545 0.000797461 0.890144
17.5804 47.593 95.2174 0.467804 0.00860412 0.88379
18.6 47.5674 94.6748 0.470682 0.00777125 0.882269
19.681 47.4928 94.0761 0.491193 0.00802796 0.871005
20.8299 46.6199 93.3925 0.553039 0.0121454 0.833042
20.966 44.6985 93.3265 0.549958 0.00680439 0.835162
20.9884 43.6188 93.3328 0.545547 0.0164045 0.83792
20.9847 42.4761 93.3506 0.532414 0.0285865 0.846001
20.9534 41.4729 93.405 0.523583 0.0137336 0.851649
19.8979 40.4567 94.0344 0.502225 0.000292378 0.864638
18.6553 40.3321 94.7471 0.493635 0.00886264 0.869598
17.2505 40.3462 95.5013 0.46403 0.0132056 0.885694
15.9426 40.4114 96.125 0.421556 0.00560274 0.906767
14.7443 40.391 96.6242 0.357765 0.00591399 0.933792
13.6458 40.3923 97.0424 0.348461 0.0093021 0.937249
12.4219 40.3494 97.4824 0.322132 0.0194321 0.946442
11.1384 40.3649 97.8934 0.279992 0.0139091 0.95988
10.13 40.3724 98.1798 0.27051 0.0098071 0.962667
9.03376 40.3896 98.4494 0.225718 0.0172692 0.974039
7.88878 40.4894 98.7009 0.18961 0.00654264 0.981582
6.8937 40.4871 98.8705 0.166932 0.0111135 0.985904
5.35431 40.4203 99.1102 0.132134 0.00836156 0.991193
4.12452 40.4041 99.2756 0.103318 0.0108151 0.994138
2.70721 40.4388 99.3786 0.0721738 0.00905185 0.997349
1.00786 40.4047 99.449 0.0256985 0.00314596 0.999665
-0.052407 40.4136 99.4742 0.00912912 0.00940426 0.99978
-1.87801 40.476 99.4401 -0.0217455 0.00824778 0.999728
-2.9025 40.5594 99.3868 -0.0678043 0.00838275 0.997578
-3.98528 40.4888 99.2991 -0.0878004 0.0127597 0.99605
-5.21705 40.4215 99.1663 -0.119975 0.00708676 0.992752
-6.3529 40.4402 99.0286 -0.141901 0.0129011 0.989501
-7.75742 40.3981 98.7809 -0.176185 0.0201356 0.98415
-8.86048 40.3574 98.5574 -0.215537 0.0192247 0.976259
-9.84784 40.3375 98.3321 -0.237341 0.0179768 0.971127
-11.0115 40.3316 98.0228 -0.256253 0.016581 0.966467
-12.4649 40.4395 97.5937 -0.320539 0.00458549 0.947118
-13.4883 40.3802 97.2304 -0.345612 0.0125684 0.938215
-14.4489 40.3567 96.8673 -0.352064 0.0109685 0.935858
-15.8602 40.3819 96.2595 -0.405247 0.0128848 0.914108
-16.8987 40.4014 95.7718 -0.444764 0.0191034 0.895352
-17.8586 40.3815 95.2803 -0.45984 0.0110259 0.887921
-19.0671 40.4025 94.6312 -0.475289 0.0138876 0.879719
-20.2957 40.4764 93.8867 -0.532592 0.0105314 0.846198
-20.9431 41.7282 93.4238 -0.562231 0.0217771 0.826693
-20.9608 42.942 93.3907 -0.560797 0.00456809 0.827904
-20.9875 44.152 93.3742 -0.564928 -0.000983395 0.825139
-20.9792 45.1967 93.3567 -0.572226 0.0188762 0.819878
-20.9248 46.3622 93.3652 -0.549242 -0.0213738 0.83539
-19.9372 47.5599 94.0254 -0.538767 -0.00567957 0.842435
-18.5833 47.6386 94.8287 -0.497417 0.0149496 0.8673
-18.1683 47.6577 95.0618 -0.465384 0.0135959 0.884483
-18.0424 48.4481 95.1145 -0.478695 0.0103677 0.877822
-18.918 48.4096 94.6259 -0.490294 0.00335225 0.871542
-19.8166 48.3795 94.1045 -0.506243 -0.00502598 0.862372
-20.6586 48.3303 93.5669 -0.541519 0.00584736 0.840668
-21.4336 47.9346 93.0604 -0.604298 0.000285723 0.796703
-21.5875 46.9046 92.9312 -0.609063 -0.0150703 0.792977
-21.6114 45.8844 92.8992 -0.583592 0.0191434 0.811821
-21.6405 44.8707 92.9027 -0.572226 0.0188762 0.819878
-21.6495 43.8495 92.9203 -0.568829 0.00902093 0.822331
-21.6302 42.7938 92.9437 -0.556868 0.0102211 0.830538
-21.6813 41.6554 92.9201 -0.563081 0.0140948 0.82624
-21.6763 40.4236 92.9605 -0.562103 0.0246201 0.826697
-21.0983 39.7231 93.369 -0.543376 -0.0079142 0.839452
-20.0716 39.5696 94.0227 -0.529346 -0.00512865 0.84839
-19.2024 39.5727 94.5486 -0.504955 -0.0038321 0.863075
-17.5565 39.5911 95.4492 -0.462058 0.028242 0.886391
-16.6337 39.6136 95.9209 -0.436441 0.0182184 0.899243
-15.6722 39.5823 96.3534 -0.406084 0.0109791 0.913765
-14.694 39.528 96.7765 -0.377166 0.00880565 0.925925
-13.5466 39.5966 97.2213 -0.348801 0.014365 0.936975
-12.3961 39.6216 97.6184 -0.310131 0.00479905 0.95068
-11.4278 39.5266 97.9271 -0.265568 0.0207196 0.963805
-10.4596 39.521 98.1832 -0.252629 0.0230683 0.967286
-9.47371 39.5385 98.4376 -0.21605 0.0189624 0.976158
-8.48275 39.5418 98.6493 -0.206622 0.0127028 0.978336
-7.35151 39.5858 98.8685 -0.171223 0.0141014 0.985114
-6.20807 39.6038 99.0603 -0.141901 0.0129011 0.989501
-5.2046 39.5376 99.1798 -0.117443 0.0156138 0.992957
-3.67747 39.7017 99.3345 -0.0803791 0.0133218 0.996666
-2.09741 39.667 99.4405 -0.0566752 0.0095325 0.998346
-1.06035 39.6257 99.4673 -0.0133818 0.0167397 0.999724
0.4493 39.5756 99.4849 0.00397454 0.0156966 0.999584
1.4503 39.5399 99.4535 0.0303684 0.0228057 0.999273
3.20052 39.5979 99.353 0.0754263 0.0189091 0.996972
4.88705 39.553 99.1822 0.131701 0.0114758 0.991221
5.88994 39.5819 99.0482 0.148352 0.0112109 0.988737
6.99234 39.6534 98.8628 0.169151 0.00963329 0.985542
8.32731 39.6101 98.6091 0.211771 0.00396842 0.977311
9.60384 39.5573 98.3316 0.211918 0.00772186 0.977246
10.7357 39.5395 98.0151 0.276117 0.00279415 0.961118
11.7661 39.5241 97.709 0.303059 0.00396351 0.952899
13.1919 39.5747 97.219 0.335185 -0.00131802 0.942148
14.2332 39.5899 96.8251 0.356628 0.00671579 0.934215
15.2896 39.6211 96.4187 0.372533 -0.00601761 0.927826
16.4554 39.6323 95.8907 0.4244 0.00493139 0.905412
17.9385 39.5779 95.1502 0.466585 0.00460787 0.884439
18.9122 39.5727 94.6117 0.492911 0.0166648 0.869904
20.5269 39.6625 93.6673 0.510587 0.0105198 0.85976
21.4697 40.0092 93.1028 0.545339 0.00119502 0.83736
21.6586 41.0919 92.9657 0.578117 0.017658 0.815715
21.665 42.9795 92.9029 0.569939 0.0170038 0.821455
21.6607 44.0963 92.8851 0.562709 0.0159876 0.8265
21.6318 45.2132 92.8819 0.549424 0.010815 0.83544
21.5787 46.2145 92.8983 0.561339 0.0163785 0.827423
21.2027 48.1146 93.1221 0.56176 0.0125905 0.827196
20.2931 48.3906 93.7143 0.497941 0.0109509 0.867138
19.1022 48.3443 94.3961 0.490213 0.0113484 0.871517
18.094 48.3921 94.9385 0.4711 0.003457 0.882069
17.119 48.3838 95.4563 0.467946 0.0014654 0.883755
16.1968 48.3502 95.9206 0.403209 0.0170214 0.914829
15.1937 48.3571 96.3475 0.390351 0.00837268 0.920626
14.0782 48.467 96.793 0.360231 0.0133025 0.932761
12.3034 48.4338 97.448 0.313597 0.0223928 0.949001
11.2894 48.4493 97.7646 0.29487 0.00584888 0.955508
10.1624 48.4362 98.0816 0.257556 0.0171368 0.966038
9.06976 48.3675 98.3618 0.229394 0.0105747 0.973092
7.96035 48.363 98.5995 0.206292 0.0055206 0.978468
6.21103 48.3367 98.9108 0.149768 0.0024252 0.988718
5.04394 48.3618 99.08 0.132315 0.0106911 0.991047
4.01075 48.3912 99.1975 0.113085 0.0101719 0.993533
2.89213 48.3709 99.2941 0.0700128 0.0114089 0.997401
1.46281 48.342 99.3644 0.0409207 0.0112508 0.999082
0.252798 48.3347 99.3943 0.02071 0.0144334 0.999671
-0.923347 48.3579 99.4053 -0.0364033 0.0109508 0.999105
-2.21599 48.3462 99.3366 -0.0542632 0.0025481 0.99852
-3.80262 48.3977 99.2303 -0.0736533 0.0030733 0.997279
-5.44707 48.3051 99.0582 -0.126142 0.00941985 0.991967
-6.90624 48.4049 98.8471 -0.161356 0.0085741 0.986859
-8.09546 48.4103 98.6479 -0.185295 0.0121984 0.982479
-9.1908 48.3292 98.4221 -0.20556 0.012656 0.978558
-10.4841 48.3495 98.1091 -0.253782 0.00811673 0.967219
-11.8937 48.3451 97.6987 -0.304884 0.00503052 0.952367
-12.8636 48.3895 97.3784 -0.32531 0.0099553 0.945479
-13.9473 48.4276 96.9763 -0.35424 0.00840078 0.935117
-15.0303 48.3941 96.5345 -0.394693 0.00946444 0.918764
-16.1094 48.4125 96.056 -0.422381 0.00412803 0.906281
-17.1628 48.4585 95.5458 -0.434518 0.00390405 0.900642
-17.8927 48.4505 95.1942 -0.451975 0.00917625 0.891696
-17.561 49.2387 95.3538 -0.469694 0.0208548 0.882583
-18.5244 49.2759 94.8397 -0.469699 0.0201445 0.882597
-19.4932 49.2242 94.296 -0.51204 0.00324492 0.858639
-20.3435 49.1953 93.7645 -0.536342 0.00813326 0.843929
-21.2613 49.2294 93.1501 -0.59678 0.0335768 0.801702
-22.0187 48.8518 92.6001 -0.607722 0.0225407 0.793715
-22.3486 47.6356 92.36 -0.614416 -0.00281462 0.78887
-22.2639 45.6238 92.4363 -0.582569 0.0187535 0.812564
-22.299 44.5338 92.4399 -0.582155 0.0208787 0.812809
-22.3018 43.4796 92.4343 -0.604937 0.00601805 0.796184
-22.2991 42.47 92.4538 -0.610467 0.0149278 0.7919
-22.5043 41.4762 92.324 -0.602865 0.0199625 0.797587
-22.3489 39.744 92.4779 -0.60458 0.0172868 0.796356
-21.784 38.7268 92.9326 -0.575291 0.0209045 0.815714
-20.875 38.8126 93.5048 -0.543272 -0.00828714 0.839516
-19.8686 38.6669 94.1447 -0.524895 -0.00646915 0.851122
-18.6868 38.734 94.8406 -0.498317 -0.00233037 0.866991
-17.0478 38.7641 95.7373 -0.438184 0.0202666 0.898293
-16.0773 38.7435 96.1839 -0.41042 0.0122843 0.911776
-14.195 38.7681 96.9756 -0.374817 -0.00740739 0.927069
-13.156 38.6396 97.3793 -0.331647 0.0133512 0.943021
-11.9837 38.7148 97.7562 -0.29657 0.00124689 0.95501
-10.0646 38.7461 98.3048 -0.252629 0.0230683 0.967286
-9.05896 38.7455 98.5309 -0.210438 0.00455078 0.977597
-7.74489 38.5718 98.8127 -0.187039 0.00873789 0.982094
-6.05747 38.8019 99.0909 -0.139428 0.0113826 0.9899
-4.95806 38.5413 99.2166 -0.107995 0.00495284 0.994138
-3.87497 38.7966 99.3308 -0.0944722 0.00828798 0.995428
-2.28241 38.8479 99.4398 -0.0567872 0.0158397 0.998254
-1.04066 38.726 99.4805 -0.0289668 0.00913918 0.999538
0.0674703 38.7188 99.4968 0.00112291 0.0295443 0.999497
1.09685 38.7543 99.4778 0.0384639 0.0114431 0.999171
2.75957 38.5778 99.4062 0.0595148 0.0137542 0.997983
3.72643 38.7685 99.3266 0.097206 0.00838331 0.995079
5.01068 38.668 99.1764 0.123599 0.00294225 0.992325
6.35943 38.7801 98.977 0.16513 0.00820235 0.986238
7.47081 38.8249 98.7872 0.167067 0.0150248 0.9858
8.669 38.741 98.546 0.21028 0.0163825 0.977498
9.70089 38.7514 98.3104 0.272624 0.000986342 0.962118
10.9397 38.6539 97.9577 0.273959 -2.19664e-05 0.961741
12.5032 38.7474 97.4628 0.321834 0.0126048 0.946662
13.5799 38.7499 97.0807 0.347447 0.0178707 0.937352
14.742 38.785 96.633 0.359619 0.00466923 0.933088
15.7335 38.8027 96.221 0.397316 0.00122877 0.917501
16.7709 38.7561 95.7476 0.428884 0.00707116 0.903028
17.7588 38.7749 95.2475 0.472893 -0.00641078 0.881096
18.8883 38.6959 94.641 0.485083 0.00456095 0.874272
20.1723 38.798 93.8905 0.511515 0.0120386 0.85919
21.1702 38.8522 93.2879 0.517576 0.0132571 0.855529
22.2499 39.4683 92.5519 0.571326 0.0155346 0.820574
22.3717 40.5324 92.4626 0.582173 0.00969099 0.813007
22.3739 41.5362 92.449 0.578559 0.0171513 0.815414
22.3595 43.4397 92.4214 0.56669 0.00855051 0.823887
22.3375 44.5314 92.4156 0.565508 0.0194615 0.824502
22.3022 45.647 92.4099 0.568911 0.0190595 0.82217
22.2462 46.7592 92.4256 0.571922 0.0161692 0.820148
22.217 48.0232 92.4251 0.580852 0.00591907 0.813987
21.9459 49.0165 92.6177 0.58649 0.00353134 0.809947
21.1399 49.2464 93.1659 0.543852 0.00922321 0.838751
20.2261 49.2464 93.7359 0.515956 0.0240293 0.856121
18.757 49.196 94.5779 0.478723 0.000336992 0.877932
17.7948 49.254 95.0944 0.473262 0.00493352 0.880908
16.8394 49.2743 95.6029 0.442169 0.0120249 0.896286
15.7207 49.2636 96.1138 0.403581 0.0161316 0.914686
14.7632 49.3291 96.5218 0.376769 0.00396903 0.926095
13.6618 49.2548 96.9416 0.344647 0.0158801 0.938584
11.8841 49.2837 97.5753 0.313597 0.0108966 0.949327
10.776 49.2776 97.8964 0.26967 0.0141112 0.96284
9.54307 49.2109 98.2316 0.252072 0.0061402 0.967665
8.29059 49.2088 98.5284 0.212676 0.000302383 0.977103
6.72967 49.2399 98.8265 0.172146 0.01332 0.984981
5.65491 49.1982 98.9904 0.12486 0.0171016 0.992027
3.95567 49.2775 99.1949 0.107779 0.0126325 0.994076
2.55488 49.2389 99.3016 0.0511643 0.0109263 0.99862
1.34324 49.1452 99.3592 0.0384985 0.0123412 0.999154
-0.393822 49.1675 99.3986 -0.00285465 0.0130884 0.999689
-1.66673 49.2798 99.3682 -0.0384415 0.00935349 0.998994
-2.84986 49.3514 99.2966 -0.0730057 0.00322375 0.997326
-4.60272 49.2803 99.1489 -0.0913457 0.0172531 0.99567
-5.87712 49.1678 98.9945 -0.130251 0.00850896 0.991437
-7.1856 49.3158 98.7948 -0.171698 0.0119293 0.985
-8.55967 49.3317 98.5333 -0.190827 0.0157658 0.981438
-9.94165 49.1839 98.2486 -0.235771 0.00333812 0.971602
-11.3826 49.2651 97.8501 -0.277762 0.01542 0.960499
-12.4175 49.2048 97.5221 -0.32125 0.0179202 0.946677
-13.4184 49.2779 97.164 -0.334711 0.0264548 0.941949
-14.3463 49.4312 96.8175 -0.374113 0.00798853 0.927088
-15.4504 49.1849 96.3434 -0.406382 0.0144969 0.91357
-16.6397 49.2817 95.7999 -0.426548 0.00741614 0.904349
-17.543 49.2387 95.3634 -0.452095 0.00811608 0.891626
-5.68384 44.1441 99.0744 -0.149487 0.00889643 0.988686
-4.59227 44.0961 99.1909 -0.098496 0.00782165 0.995107
-4.52558 43.8387 99.2004 -0.0958278 0.0158717 0.995271
-5.50978 44.2482 99.0993 -0.119566 0.00919534 0.992475
-2.79827 44.3304 99.3435 -0.0665088 0.00546265 0.99777
-1.25766 43.8304 99.4313 -0.0215592 0.0100553 0.999528
-1.0068 44.2094 99.4309 -0.0130943 0.0119181 0.99976
-2.07768 44.2686 99.3917 -0.052611 0.0108844 0.998456
-0.177562 43.7437 99.4342 -0.00151804 0.0057617 0.999976
0.672095 44.3072 99.4265 0.0280688 0.0089038 0.999566
1.86805 44.1059 99.3942 0.0308945 0.00705566 0.999495
0.486437 43.9654 99.4346 0.012104 0.008542 0.999769
2.69959 44.3196 99.3473 0.0834012 0.00651337 0.996495
4.10227 43.9828 99.2322 0.104088 0.00706301 0.994324
3.96569 43.6655 99.2458 0.0834928 0.00639517 0.996488
2.95007 43.8855 99.3292 0.0833378 0.0065823 0.9965
5.46555 44.2902 99.0569 0.127458 0.00707448 0.991818
6.62364 43.9875 98.8878 0.153738 0.00926693 0.988068
5.78297 43.9989 99.0193 0.138519 0.0134905 0.99012
5.55435 43.9784 99.0475 0.124377 0.00959803 0.992179
8.07458 44.0345 98.6301 0.206276 0.00659541 0.978448
8.97597 43.7027 98.4359 0.212056 0.000874304 0.977256
9.49306 44.1544 98.3038 0.259252 0.00990621 0.965759
8.38541 44.3197 98.562 0.210244 0.00882159 0.977601
8.13815 44.2955 98.6139 0.201754 0.0115317 0.979368
10.1095 43.6426 98.1434 0.261834 0.00750549 0.965079
11.1367 43.7301 97.8532 0.28342 0.0131635 0.958905
12.4007 43.6841 97.4644 0.324721 -0.00648727 0.945768
13.8122 43.5932 96.9673 0.333357 -0.00574547 0.942783
14.761 43.4698 96.5966 0.376238 0.00299548 0.926518
15.6307 44.3402 96.2282 0.406699 0.0151256 0.913012
16.4482 43.479 95.8528 0.432996 0.0166539 0.901242
17.9485 43.7095 95.0844 0.473677 0.0163967 0.880546
17.2418 44.5341 95.4481 0.45003 0.02328 0.892611
15.6493 44.3973 96.2182 0.433043 0.0166291 0.901219
14.3024 44.2137 96.7754 0.377457 0.0155125 0.925895
13.0141 44.345 97.2498 0.331637 0.0051237 0.943392
12.0623 44.4002 97.5707 0.294355 0.0162199 0.955479
10.654 44.3721 97.9886 0.272284 0.00997062 0.962094
10.2362 44.2994 98.1027 0.260555 0.0112937 0.965392
