0.849429 48.6067 22.8163 -0.0807746 -0.0960429 0.992094
1.99244 48.6168 22.8018 0.147235 -0.162309 0.970132
2.96644 48.6255 22.5576 0.238421 -0.120141 0.963701
4.0131 48.6034 22.2989 0.267107 -0.157985 0.949407
5.07195 48.5582 21.9354 0.316229 -0.141614 0.938054
6.14923 48.4644 21.5405 0.429298 -0.150073 0.888704
7.09046 48.3177 21.0123 0.471682 -0.110712 0.874773
8.24794 47.676 20.2993 0.476392 -0.106212 0.872788
8.89704 46.9682 19.8413 0.502174 -0.112844 0.857371
9.5542 46.1803 19.3508 0.502001 -0.109579 0.857883
10.2872 45.3749 18.8326 0.504999 -0.0937839 0.857904
11.0761 44.6358 18.2828 0.506891 -0.0829493 0.857955
11.9705 44.0195 17.7318 0.488605 -0.0558949 0.870713
13.3065 43.4193 16.9391 0.494257 -0.0641872 0.866905
14.2935 42.8719 16.3097 0.526293 -0.0978524 0.844069
14.964 41.7716 15.7392 0.50326 -0.127914 0.854615
15.2403 40.6147 15.451 0.474335 -0.072097 0.877247
15.2337 39.6031 15.389 0.478925 -0.0559276 0.876072
15.067 38.5362 15.4169 0.461077 -0.0306843 0.886799
14.8464 37.3944 15.4914 0.453915 -0.030963 0.890507
14.6189 36.3702 15.5704 0.457046 -0.0461343 0.888123
14.3751 35.3695 15.6269 0.45873 -0.0605832 0.886506
13.9367 33.8923 15.7422 0.470698 -0.0760485 0.878979
13.5834 32.9538 15.8442 0.446852 -0.0934712 0.889383
12.8457 31.6835 16.0997 0.411242 -0.0645143 0.909122
12.1324 30.8546 16.3304 0.419024 -0.0843913 0.903459
11.2442 29.9429 16.6835 0.44071 -0.092216 0.8929
10.4574 29.1559 16.98 0.419829 -0.0919021 0.902881
9.66139 28.2115 17.2318 0.407751 -0.10235 0.907338
9.08641 27.2618 17.3584 0.427791 -0.149144 0.891418
8.6563 26.2381 17.3859 0.392104 -0.126023 0.911218
8.33452 24.5265 17.3125 0.395625 -0.0924648 0.913584
8.51605 23.3391 17.1574 0.400123 -0.0588417 0.91457
8.91319 22.3158 16.8957 0.413733 -0.0939655 0.905536
9.48508 21.455 16.5444 0.378097 -0.0853026 0.920943
10.4506 20.6465 16.1526 0.334275 -0.051201 0.941084
11.4066 20.0404 15.7443 0.385655 -0.0739802 0.919593
12.2579 19.4073 15.3244 0.389202 -0.0857333 0.917154
13.2099 18.2004 14.7732 0.415094 -0.0774143 0.906478
14.0457 16.7179 14.2841 0.388678 -0.0706308 0.918662
14.9383 15.4007 13.7902 0.399077 -0.083111 0.913143
15.6052 14.7339 13.4379 0.413606 -0.0784122 0.907047
16.6523 14.0019 12.8905 0.419618 -0.076177 0.904499
17.6547 13.5618 12.3987 0.409652 -0.0692927 0.909592
18.6191 13.3982 11.9631 0.393593 -0.0609973 0.917259
19.5923 13.4114 11.5476 0.390052 -0.0609353 0.918772
20.5654 13.6348 11.1517 0.388195 -0.0633699 0.919396
21.4714 13.9991 10.8019 0.400952 -0.0412676 0.914734
22.2905 14.5023 10.4338 0.422606 -0.0364952 0.905382
23.3003 15.3596 10.0239 0.408209 -0.064201 0.910628
24.1119 16.1173 9.71424 0.40914 -0.057847 0.910607
24.9929 16.7825 9.37762 0.38129 -0.0537649 0.922891
26.1794 17.2933 8.90449 0.398594 -0.0457594 0.915985
27.1102 17.5253 8.50797 0.408844 -0.0229966 0.912285
28.4167 17.6744 7.92791 0.406101 -0.0140618 0.91372
29.3309 17.5579 7.51797 0.407198 -0.0131887 0.913244
30.166 16.9792 7.1377 0.404688 -0.014412 0.914339
30.7566 15.7944 6.85956 0.402977 -0.0123406 0.915127
30.7617 14.7559 6.84218 0.39857 -0.0133191 0.917037
30.4512 13.456 6.95199 0.389242 -0.0219269 0.920874
30.0926 12.1885 7.06157 0.382967 -0.035752 0.923066
29.859 10.3645 7.07961 0.390574 -0.0375205 0.919749
29.9904 9.19613 6.99907 0.407863 -0.009368 0.912966
30.1832 8.12327 6.91162 0.393747 0.00665176 0.919108
30.555 6.94586 6.76833 0.37971 0.00726211 0.925065
31.2014 5.72875 6.51096 0.373116 0.00194953 0.927767
32.2112 4.38834 6.10819 0.364928 0.00306969 0.931029
32.7788 3.51129 5.8848 0.360276 -0.0106779 0.932775
33.0973 2.52736 5.74634 0.359748 -0.0139146 0.932946
33.0899 1.509 5.73414 0.359295 -0.0113536 0.933151
32.8492 0.53987 5.81992 0.363501 -0.00447952 0.931583
32.274 -0.889196 6.04467 0.370764 0.000694052 0.928725
31.7686 -2.12157 6.25472 0.37433 0.0124991 0.927196
31.373 -3.28706 6.43754 0.374421 0.0185638 0.927073
31.0821 -4.42087 6.56124 0.369325 -0.0129901 0.929195
30.7899 -5.68072 6.65392 0.372875 -0.0155872 0.927745
30.6525 -7.27525 6.68766 0.373204 -0.0128222 0.927661
30.6214 -8.2906 6.70973 0.384301 0.0164184 0.923026
30.6533 -9.35201 6.71935 0.354323 0.014464 0.935004
30.803 -10.8085 6.66265 0.365773 -0.00295585 0.9307
31.1676 -12.3605 6.52933 0.356067 0.0141142 0.934354
31.5633 -13.3887 6.39419 0.355404 0.0112283 0.93464
32.1162 -14.507 6.20164 0.36588 0.0195006 0.930458
32.7645 -15.7467 5.96603 0.368379 0.00938113 0.929615
33.1218 -16.6831 5.82936 0.371633 1.65287e-05 0.928359
33.1985 -17.9096 5.79222 0.375419 -0.00435521 0.926845
32.8422 -19.1236 5.93892 0.363198 -0.0089586 0.931527
31.5695 -19.949 6.39696 0.353205 -0.0180724 0.935349
30.0514 -20.0925 6.99188 0.367282 -0.00787988 0.930076
29.0975 -19.9586 7.36274 0.360608 -0.00631112 0.932696
27.4941 -19.3745 8.02253 0.394577 -0.014722 0.918744
26.3262 -18.5505 8.55261 0.412677 0.00161327 0.910682
25.2328 -17.309 9.00565 0.398497 0.0201106 0.916949
24.4215 -16.0584 9.31856 0.38873 0.0219622 0.92109
23.9484 -15.1101 9.48474 0.377871 0.016407 0.92557
23.3437 -13.7889 9.72978 0.375374 0.000176626 0.926873
22.6859 -12.8169 10.0087 0.376685 -0.015827 0.926206
21.9522 -12.1498 10.3223 0.381981 -0.00867252 0.924067
20.873 -11.5607 10.7638 0.379252 0.00280345 0.925289
19.4392 -11.4493 11.3289 0.365222 0.00564241 0.930899
18.4267 -11.7006 11.7121 0.345125 0.010593 0.938497
16.9224 -12.6438 12.3067 0.377787 0.0317157 0.925247
16.2166 -13.3294 12.6271 0.374973 0.00876589 0.92664
15.4952 -14.1573 12.8956 0.352007 0.0111439 0.935628
14.6007 -15.5039 13.294 0.358028 0.0514538 0.932292
13.7683 -16.8991 13.7659 0.433925 0.0465441 0.899558
12.9941 -17.7507 14.1947 0.43095 0.0649091 0.900038
11.4294 -18.2307 14.9401 0.393971 0.0443186 0.918052
10.4795 -17.962 15.3333 0.371221 0.0193308 0.927483
9.46906 -17.5346 15.6882 0.335213 0.0114306 0.942071
8.46402 -17.168 16.0456 0.290854 0.00677573 0.95528
7.45744 -17.0046 16.301 0.266396 0.0419987 0.962948
7.44144 -17.7173 16.3365 0.266484 0.0419771 0.962925
5.88138 -17.7276 16.8461 0.360207 0.0181172 0.932697
4.91478 -17.9771 17.2261 0.267566 0.0530437 0.95687
3.89094 -18.3992 17.4428 0.174224 0.0806491 0.981398
2.72946 -19.0734 17.563 0.0965157 0.086035 0.989811
1.82852 -19.7196 17.7797 0.142778 0.155175 0.977515
0.925191 -20.4305 17.9905 0.109989 0.139138 0.984136
0.137468 -21.2944 18.0217 -0.116242 0.0806473 0.989413
-0.396427 -22.2421 18.0063 -0.149426 0.0939439 0.984299
-1.14237 -23.0817 17.9751 -0.143357 0.106864 0.983803
-0.599854 -24.2599 18.1902 -0.125477 0.114633 0.98539
-0.0473054 -25.3179 18.3409 -0.103426 0.0784167 0.991541
0.960419 -26.7134 18.473 0.0489048 0.127003 0.990645
1.7736 -27.6881 18.5606 0.06013 0.120172 0.990807
2.67249 -28.6469 18.589 0.137005 0.126395 0.980302
3.41492 -29.5881 18.566 0.271964 0.089952 0.958064
3.96712 -30.5233 18.4883 0.275019 0.0830643 0.95784
4.51968 -31.5051 18.441 0.235676 0.176108 0.953492
5.21813 -32.4871 18.5111 0.242429 0.2317 0.942081
6.04478 -33.376 18.3544 0.370516 0.128683 0.919868
6.98491 -34.0196 18.0667 0.328581 0.116233 0.936713
8.06053 -34.3674 17.6977 0.357043 0.126272 0.925514
9.08365 -34.4006 17.2991 0.413993 0.0861466 0.906028
9.9995 -34.2204 16.8497 0.427048 0.0577906 0.90238
11.394 -33.636 16.1202 0.461043 0.0702793 0.88459
12.3303 -33.0661 15.5879 0.42143 0.0634598 0.903777
13.2303 -32.5755 15.1792 0.394099 0.0542814 0.91745
14.3796 -32.128 14.6391 0.422888 0.0679174 0.903609
15.364 -32.0562 14.1721 0.446783 0.0719295 0.891322
16.4281 -32.3195 13.6344 0.46565 0.0843237 0.880941
17.2685 -32.8011 13.2247 0.464534 0.051246 0.884071
18.5598 -33.6786 12.648 0.418964 0.0349316 0.907331
19.5107 -34.3812 12.23 0.428492 0.0341049 0.902874
20.2338 -35.0325 11.9098 0.43086 0.0357481 0.901706
21.0532 -35.9035 11.5603 0.436065 0.0406588 0.898982
21.7014 -36.8535 11.2885 0.451552 0.0446718 0.890849
22.2318 -37.9092 11.0209 0.46684 0.0118153 0.88425
22.4426 -38.9902 10.9466 0.437011 0.0519086 0.897955
22.4445 -40.3464 11.0254 0.438156 0.0459832 0.897697
22.4024 -41.4281 11.0933 0.437178 0.0398986 0.898489
22.2139 -42.4224 11.2204 0.437301 0.0262287 0.898921
21.7603 -43.3613 11.4719 0.441034 0.026991 0.897084
21.1308 -44.1321 11.8106 0.442566 0.0330395 0.896127
20.4438 -44.7964 12.192 0.456264 0.0369571 0.889074
19.6691 -45.4744 12.617 0.459333 0.0367956 0.887502
18.582 -46.1594 13.2082 0.459214 0.0348729 0.887638
17.6708 -46.4325 13.6762 0.434125 0.0669156 0.898362
16.7612 -46.5375 14.1216 0.456138 0.0845331 0.885271
15.8146 -46.5817 14.6616 0.497911 0.0929241 0.862235
14.8586 -46.6012 15.2179 0.490082 0.0828492 0.867598
13.9599 -46.6533 15.7266 0.49229 0.0671629 0.867836
12.6864 -47.014 16.4523 0.459201 0.047636 0.887011
11.6496 -47.7718 17.0518 0.488119 0.0864574 0.868484
10.9191 -48.5617 17.538 0.475462 0.0678106 0.876898
9.54062 -49.122 18.3041 0.469868 0.051915 0.881208
8.57831 -49.1603 18.794 0.411219 0.0426586 0.909622
7.61674 -49.1468 19.1848 0.376578 0.0579648 0.92457
6.09308 -49.1245 19.7411 0.293234 0.0876084 0.952018
4.96561 -49.1424 20.0926 0.265419 0.0688493 0.961603
3.54689 -49.1876 20.4826 0.236074 0.0701972 0.968608
1.67887 -49.1967 20.8299 0.172055 0.0957351 0.980424
0.373764 -49.2639 20.9421 0.028273 0.0888921 0.994576
-0.852205 -49.3001 20.8782 -0.0972112 0.0858096 0.991558
-2.02913 -49.309 20.7564 -0.140283 0.119437 0.981688
-3.46037 -49.3368 20.4976 -0.234997 0.106564 0.964804
-5.14403 -49.2057 19.9375 -0.33806 0.0629565 0.938532
-6.05275 -49.1502 19.5049 -0.434461 0.0110491 0.900617
-7.57174 -49.0676 18.6965 -0.493673 0.0482402 0.868231
-8.81933 -48.944 18.0056 -0.463979 0.0508215 0.88438
-9.93056 -48.7188 17.4113 -0.462851 0.0528085 0.884861
-11.3629 -47.948 16.6048 -0.469524 0.0556131 0.881157
-12.2943 -47.0453 16.0385 -0.492954 0.0656116 0.867576
-12.9805 -46.339 15.5985 -0.505268 0.060829 0.860665
-13.8149 -45.0521 14.9854 -0.507103 0.0484548 0.860062
-14.4941 -43.9159 14.5147 -0.478761 0.0815728 0.874147
-15.0433 -43.026 14.1618 -0.454105 0.0600018 0.888922
-15.4703 -42.0279 13.9225 -0.444141 0.00380728 0.895949
-15.5052 -40.361 13.8835 -0.445282 0.0208892 0.895147
-14.8817 -38.9566 14.1721 -0.472143 0.0386472 0.880674
-13.6505 -37.9162 14.7373 -0.433432 0.068655 0.898564
-12.1266 -37.2783 15.4838 -0.49575 0.0413904 0.867477
-10.7015 -36.6429 16.1799 -0.421264 0.0686016 0.904216
-9.876 -36.1284 16.5361 -0.408025 0.0631602 0.910578
-8.68176 -35.1269 16.9672 -0.393896 0.0482033 0.917561
-7.95693 -34.258 17.219 -0.363013 0.0468005 0.930603
-7.47023 -33.3916 17.3636 -0.389004 0.071845 0.918407
-7.09031 -32.3995 17.4187 -0.396982 0.105459 0.911744
-6.79053 -31.3757 17.4274 -0.397353 0.114946 0.910414
-6.37256 -30.3625 17.4479 -0.38068 0.145725 0.913132
-5.77616 -29.2897 17.5309 -0.377584 0.15146 0.91343
-4.67612 -27.9745 17.7467 -0.299919 0.172017 0.93512
-3.89886 -27.239 17.8535 -0.257321 0.121978 0.958597
-3.18535 -26.4659 17.9457 -0.253596 0.109428 0.961074
-2.33354 -25.0585 17.9795 -0.208334 0.106033 0.972293
-1.91053 -23.7625 17.9221 -0.206188 0.111757 0.972109
-1.92165 -22.7694 17.8159 -0.185053 0.0898125 0.978602
-2.35411 -21.4882 17.6096 -0.181448 0.0953529 0.978764
-2.93353 -20.48 17.4058 -0.203988 0.0268949 0.977397
-3.75344 -19.6352 17.1603 -0.239977 0.0541818 0.969261
-4.66439 -18.9491 16.8927 -0.235382 0.0683413 0.969497
-5.58869 -18.4983 16.6356 -0.231986 0.0614109 0.970743
-6.88465 -18.2203 16.2296 -0.302558 0.0711794 0.950467
-8.07564 -18.194 15.8365 -0.332619 0.0764056 0.93996
-9.20651 -18.3041 15.444 -0.359321 0.0561619 0.930923
-10.6044 -18.5014 14.8338 -0.415006 0.0768154 0.90657
-11.8024 -18.6207 14.2793 -0.424401 0.0787074 0.902034
-12.8868 -18.3224 13.8174 -0.350047 0.0172263 0.936511
-13.7749 -17.627 13.4652 -0.399916 0.0272022 0.916096
-14.6536 -16.2072 13.0234 -0.408952 0.0321012 0.911989
-15.14 -15.0775 12.7572 -0.400689 0.0503796 0.914826
-15.8511 -13.6795 12.3912 -0.370691 0.0481678 0.927504
-16.5359 -12.6233 12.0746 -0.354792 0.0297481 0.934471
-17.2798 -11.829 11.7663 -0.354133 0.0350818 0.934519
-18.404 -11.0842 11.2712 -0.411482 0.0199414 0.9112
-19.4511 -10.7694 10.7913 -0.41057 0.0183889 0.911642
-20.5701 -10.6962 10.3016 -0.391521 0.0422315 0.919199
-21.7124 -10.9206 9.83372 -0.370473 0.0447749 0.927763
-22.671 -11.3627 9.47231 -0.381017 0.0281581 0.923923
-23.8961 -12.3344 8.9715 -0.383435 0.0107553 0.923505
-24.6548 -13.1023 8.64642 -0.405737 -0.00773512 0.91386
-25.3439 -13.7926 8.32402 -0.410776 0.00546042 0.911597
-26.1202 -14.4566 7.99445 -0.398574 0.0193079 0.916915
-27.6674 -15.2241 7.33003 -0.395338 -0.000272193 0.918472
-29.0107 -15.605 6.77301 -0.377707 0.00607735 0.925889
-30.0253 -15.7598 6.38193 -0.352055 -0.000561525 0.935979
-31.0276 -15.7942 5.99508 -0.393448 -0.00558923 0.919323
-32.2572 -15.6296 5.46766 -0.394882 -0.000584889 0.918729
-33.6129 -14.8972 4.89763 -0.379362 -0.00144955 0.925247
-34.2734 -14.0738 4.63995 -0.369212 0.00791928 0.929225
-34.5253 -12.9223 4.52487 -0.349018 0.0128641 0.937027
-34.4825 -11.8671 4.52801 -0.351155 0.0125448 0.936231
-34.1124 -10.7494 4.64918 -0.350827 0.0146996 0.936325
-33.5253 -9.70338 4.8544 -0.351847 0.0112749 0.935988
-32.8116 -8.73411 5.14236 -0.381288 -0.00946715 0.924408
-32.1672 -7.77077 5.41854 -0.381208 -0.0157323 0.924336
-31.6876 -6.79025 5.62676 -0.369687 -0.0136289 0.929056
-31.3339 -5.80035 5.78225 -0.37216 -0.00307079 0.928103
-31.0688 -4.81023 5.89262 -0.388785 -0.00530449 0.921313
-30.877 -3.61647 5.98012 -0.390595 0.00421852 0.920494
-30.7974 -2.39998 5.99881 -0.397453 0.00903488 0.917578
-30.8538 -1.22189 5.96314 -0.384154 -0.0102583 0.922908
-30.9422 -0.0555654 5.96521 -0.37211 -0.031563 0.927652
-30.9726 1.10743 5.99202 -0.373156 -0.0270915 0.927366
-30.9896 2.18402 6.00301 -0.350693 0.0073192 0.936461
-31.0496 3.22284 5.97105 -0.354408 0.0170616 0.934891
-31.2125 4.29394 5.87897 -0.360064 0.0265955 0.932548
-31.5263 5.4561 5.74012 -0.374487 0.00349602 0.927176
-31.8855 6.39678 5.57668 -0.401589 0.0145316 0.915678
-32.3241 7.27113 5.362 -0.368855 0.0263181 0.929114
-32.839 8.28064 5.14209 -0.389087 -0.00565698 0.921182
-33.4316 9.24095 4.91615 -0.375932 -0.0323527 0.926069
-33.9568 10.0951 4.73556 -0.35242 -0.0297216 0.934945
-34.4517 11.4101 4.58047 -0.333378 -0.0102227 0.942738
-34.4185 12.491 4.61106 -0.375579 -0.0203343 0.926567
-33.9501 13.5467 4.83116 -0.363009 -0.0353495 0.931115
-32.5689 14.6286 5.39584 -0.348255 -0.0322896 0.936843
-31.6419 15.0237 5.78766 -0.391204 -0.0192296 0.920069
-30.2607 15.12 6.41341 -0.419887 -0.000397541 0.907428
-29.244 14.9972 6.87371 -0.402012 0.00743423 0.91555
-27.8691 14.6786 7.46006 -0.387286 -0.00626945 0.921818
-26.8094 14.2476 7.89128 -0.378799 -0.0155265 0.925347
-25.5585 13.5035 8.3628 -0.350492 -0.0165063 0.936401
-24.6818 12.8086 8.69168 -0.378828 -0.00173955 0.925465
-23.6269 12.0145 9.1251 -0.381881 -0.0135684 0.924015
-22.5915 11.4052 9.5767 -0.427181 -0.0244249 0.903836
-21.2975 10.9602 10.1695 -0.421306 -0.0324759 0.906335
-20.284 10.8532 10.633 -0.413252 -0.0494343 0.909273
-19.088 11.0631 11.1676 -0.380386 -0.0327296 0.924205
-17.6543 11.6751 11.7833 -0.393022 -0.0264511 0.91911
-16.802 12.226 12.1849 -0.411353 -0.070652 0.908732
-15.9596 12.905 12.6208 -0.408696 -0.070338 0.909944
-15.2448 13.5978 12.991 -0.394207 -0.0436765 0.917535
-14.5621 14.4122 13.2906 -0.384124 -0.0168849 0.923127
-13.9295 15.1461 13.5702 -0.39702 -0.0180011 0.917632
-12.9336 16.1651 14.0231 -0.406274 -0.0231495 0.913398
-12.014 17.1014 14.4709 -0.419737 -0.0270566 0.907242
-11.0614 17.8339 14.9654 -0.439985 -0.0487219 0.896682
-10.1648 18.1532 15.409 -0.389401 -0.0578872 0.919222
-9.0397 18.2926 15.888 -0.386767 -0.0535788 0.920619
-7.89909 18.4555 16.3235 -0.334043 -0.0905364 0.937706
-6.90417 18.7775 16.7408 -0.354804 -0.116637 0.927631
-6.01208 19.2977 17.1977 -0.411726 -0.122098 0.903031
-5.17221 20.0127 17.6431 -0.362114 -0.126182 0.923553
-4.54483 20.7704 17.9637 -0.325727 -0.118193 0.938044
-4.03425 21.6328 18.2246 -0.290136 -0.135246 0.946971
-3.67799 22.5411 18.4888 -0.286858 -0.162204 0.94414
-3.43869 23.6857 18.7295 -0.200811 -0.0964547 0.974533
-3.3636 25.1684 18.8684 -0.221384 -0.0788928 0.971989
-3.47534 26.2924 19.0236 -0.307576 -0.116494 0.940698
-3.69507 27.5037 18.993 -0.380513 -0.0845562 0.919403
-4.196 28.8588 18.9443 -0.384023 -0.113683 0.915783
-4.7408 29.8926 18.8893 -0.348987 -0.163753 0.922658
-5.54945 30.9604 18.7093 -0.412742 -0.109046 0.904179
-6.27686 31.6054 18.468 -0.401768 -0.170238 0.899355
-7.15127 32.0135 18.185 -0.379195 -0.188125 0.90599
-8.10529 32.3595 17.8136 -0.480254 -0.101581 0.871226
-9.30841 32.9666 17.2404 -0.449063 -0.0919166 0.888731
-10.3208 33.6739 16.8024 -0.43741 -0.0871898 0.895015
-11.014 34.3528 16.5068 -0.448948 -0.0475741 0.89229
-11.707 35.3447 16.215 -0.456842 -0.0503656 0.888064
-12.4524 36.3228 15.9117 -0.459441 -0.0880825 0.88383
-13.3637 37.4403 15.5291 -0.478869 -0.062418 0.875665
-14.0016 38.4322 15.2436 -0.507429 -0.0630605 0.859366
-14.5554 39.724 14.9706 -0.50432 -0.0287233 0.863039
-14.9051 40.7494 14.8127 -0.493977 -0.0519096 0.867865
-15.197 41.7284 14.7158 -0.495376 -0.0626072 0.86642
-15.5446 43.2441 14.6198 -0.511615 -0.0710572 0.856272
-15.6115 44.3209 14.6697 -0.509823 -0.0846569 0.855994
-15.4399 45.3401 14.8848 -0.519891 -0.0906315 0.849411
-14.896 46.4044 15.329 -0.497699 -0.0913265 0.862528
-14.2709 47.0776 15.7586 -0.494298 -0.0823718 0.865353
-13.4777 47.6851 16.2972 -0.534519 -0.0946946 0.839806
-12.552 48.3079 16.9594 -0.523142 -0.0980332 0.846539
-11.3226 48.7015 17.746 -0.545143 -0.0854769 0.833175
-10.2447 48.9366 18.5584 -0.58913 -0.100686 0.801741
-9.26096 49.0174 19.2464 -0.550796 -0.103942 0.828132
-7.62765 49.1361 20.1274 -0.402238 -0.0439087 0.914405
-6.62547 49.1896 20.5667 -0.420729 -0.0598677 0.904869
-5.70968 49.1833 21.0466 -0.487116 -0.142058 0.8617
-4.6955 49.2362 21.5762 -0.364651 -0.0992038 0.925838
-3.45477 49.2773 22.0602 -0.313537 -0.0936701 0.943923
-2.32807 49.2596 22.3819 -0.281891 -0.0931086 0.954497
-0.98377 49.2932 22.681 -0.146056 -0.115083 0.98252
0.396147 49.3358 22.8501 -0.0812969 -0.0957705 0.992078
1.72247 49.3362 22.9339 0.0240602 -0.0778272 0.992772
3.39863 49.329 22.579 0.221938 -0.176797 0.95889
4.53927 49.2947 22.2262 0.312799 -0.1391 0.939568
5.51146 49.2393 21.89 0.317036 -0.142059 0.937713
6.74155 49.1354 21.294 0.474504 -0.0894453 0.875697
7.70333 48.932 20.7479 0.484743 -0.0887311 0.87011
8.71254 48.2719 20.1073 0.525654 -0.0951997 0.844453
9.31507 47.5333 19.6335 0.55433 -0.0611968 0.830032
9.90272 46.7953 19.1817 0.533692 -0.0543603 0.843391
10.5508 46.0709 18.7435 0.514771 -0.0856017 0.853043
11.2442 45.389 18.2563 0.506891 -0.0829493 0.857955
11.9771 44.8278 17.78 0.493717 -0.0684364 0.866811
12.7914 44.4005 17.2957 0.480207 -0.0551889 0.875366
14.1096 43.9582 16.5253 0.499826 -0.0807708 0.862307
14.8326 43.457 16.0276 0.530829 -0.0736756 0.844211
15.3806 42.6554 15.6258 0.512985 -0.095122 0.852398
15.8223 41.4176 15.2195 0.469478 -0.0868334 0.878664
15.9233 40.4005 15.0648 0.473495 -0.0721046 0.877703
15.8311 39.035 15.0409 0.460982 -0.0380948 0.886592
15.6044 37.6886 15.1152 0.457489 -0.0270114 0.888788
15.3618 36.6618 15.203 0.45358 -0.0316861 0.890652
15.1394 35.6738 15.2521 0.460747 -0.0603144 0.88548
14.8269 34.5685 15.3441 0.454761 -0.0320605 0.890034
14.4133 33.1539 15.4636 0.420577 -0.0653018 0.904903
13.7496 31.7945 15.6919 0.423253 -0.0500179 0.904629
12.9748 30.7469 15.9604 0.404152 -0.0876826 0.910409
12.2927 30.0029 16.1792 0.399927 -0.099543 0.911125
11.5991 29.3224 16.4512 0.438493 -0.0814559 0.895036
10.5049 28.1845 16.8497 0.411507 -0.10216 0.905652
9.61812 26.8177 17.0663 0.379721 -0.130118 0.915894
9.21673 25.7455 17.0778 0.395888 -0.120232 0.910394
9.04932 24.0383 16.9682 0.394848 -0.0672279 0.916214
9.29675 23.0649 16.7979 0.407446 -0.076008 0.909849
10.3371 21.6175 16.2465 0.342791 -0.0754962 0.936373
11.2991 20.9883 15.8534 0.382028 -0.0627457 0.922018
12.2683 20.3749 15.4079 0.388177 -0.0731564 0.918619
13.1578 19.6097 14.9316 0.419406 -0.0939577 0.902923
13.7636 18.7401 14.5644 0.424371 -0.0720762 0.902506
14.2164 17.8356 14.2827 0.406623 -0.063364 0.911261
14.7466 16.9152 14.0011 0.396071 -0.0597268 0.916213
15.3255 16.0416 13.6784 0.411811 -0.07701 0.907913
15.9417 15.3203 13.3286 0.422288 -0.0734037 0.90348
16.941 14.6422 12.8105 0.42019 -0.0737726 0.904429
18.3762 14.1128 12.1235 0.405467 -0.077667 0.910804
19.3188 14.0859 11.7105 0.391349 -0.064261 0.917995
20.2486 14.2516 11.328 0.388195 -0.0633699 0.919396
21.1371 14.5894 10.9774 0.4047 -0.0667613 0.911765
21.9345 15.0887 10.6363 0.422387 -0.0560445 0.904681
22.6902 15.7126 10.3222 0.415049 -0.0605058 0.907741
23.3999 16.4293 10.0527 0.410791 -0.0511482 0.910294
24.2379 17.1638 9.721 0.390552 -0.0585983 0.918713
25.1772 17.7055 9.35806 0.38908 -0.0458518 0.919973
26.1734 18.0979 8.93536 0.402387 -0.0248493 0.915132
27.2053 18.3366 8.48347 0.415425 -0.020927 0.909387
28.5204 18.4777 7.89367 0.406908 -0.0132777 0.913372
29.4501 18.3668 7.47559 0.41006 -0.00966754 0.912007
30.5558 17.7298 6.98234 0.395845 -0.015558 0.918158
31.1343 16.9439 6.7123 0.397769 -0.0227629 0.917203
31.5057 15.6519 6.52831 0.402321 -0.01177 0.915423
31.4816 14.6248 6.52611 0.402451 -0.0116583 0.915367
31.2089 13.587 6.62927 0.404968 -0.0206306 0.914098
30.758 12.1021 6.7793 0.389053 -0.0341304 0.920581
30.5806 10.8424 6.80118 0.384682 -0.0433762 0.92203
30.654 9.47174 6.7103 0.374796 -0.0350823 0.926374
30.8039 8.44615 6.65097 0.383047 0.00887828 0.923686
31.2785 6.95962 6.47331 0.378549 0.0131888 0.925484
31.7937 6.10528 6.2757 0.370293 -0.00169937 0.928904
32.5529 5.12519 5.97262 0.364077 0.00438877 0.931357
33.3587 4.02692 5.667 0.357208 -0.00904496 0.933871
33.8202 2.80354 5.47085 0.368526 -0.0080539 0.929582
33.864 1.70901 5.43825 0.359851 -0.0112819 0.932937
33.6638 0.708117 5.50585 0.358764 -0.00889836 0.933386
33.312 -0.268194 5.63533 0.363382 -0.00137762 0.931634
32.878 -1.27756 5.80687 0.363594 0.00230043 0.931555
32.4303 -2.28187 5.9903 0.373225 0.0128471 0.927634
32.115 -3.22948 6.13659 0.374546 0.0186037 0.927022
31.6459 -4.92686 6.32569 0.366205 -0.0180508 0.930334
31.3778 -6.55664 6.40519 0.376146 -0.0154204 0.926423
31.3159 -7.64402 6.41005 0.383619 -0.00381403 0.923369
31.3198 -9.01214 6.44323 0.375981 0.0337761 0.925976
31.4049 -10.1772 6.42951 0.361322 -0.00324245 0.932435
31.5652 -11.1889 6.36331 0.357827 0.000513142 0.933769
31.9649 -12.5632 6.22851 0.356184 0.0141374 0.934309
32.4271 -13.6504 6.06093 0.36408 0.0135676 0.931243
33.0884 -14.8596 5.82318 0.370889 0.014766 0.928559
33.6889 -16.0619 5.60201 0.379505 0.0158935 0.925002
33.9386 -17.0872 5.49492 0.396069 0.00112319 0.91822
33.9368 -18.1026 5.49251 0.375888 -0.000856305 0.926659
33.6175 -19.3018 5.62153 0.376936 -0.00545049 0.926215
32.9839 -20.1378 5.85773 0.36207 -0.0309786 0.931606
32.0414 -20.6395 6.19966 0.368082 -0.0102132 0.929397
30.9311 -20.8446 6.6461 0.358507 0.0135543 0.933428
29.8473 -20.851 7.0666 0.364168 -0.00696421 0.9313
28.5914 -20.5943 7.56554 0.372598 0.0109393 0.927929
27.7084 -20.2869 7.92376 0.382446 0.0106583 0.923916
26.7401 -19.8042 8.34032 0.409296 -0.0143724 0.912162
25.7317 -18.9718 8.82335 0.412908 0.0036559 0.910539
24.6555 -17.719 9.26519 0.398761 0.0212357 0.916808
24.0655 -16.8633 9.48769 0.388853 0.025317 0.920945
23.5666 -15.9554 9.66982 0.376582 0.0318597 0.925835
22.948 -14.5303 9.89097 0.376931 0.00267651 0.926238
22.4677 -13.62 10.0839 0.375597 -0.00625955 0.926712
21.3623 -12.5566 10.559 0.384193 -0.0192232 0.923053
20.1304 -12.1292 11.0618 0.3656 0.00567213 0.930753
18.9864 -12.2396 11.5088 0.362896 0.0041613 0.93182
18.1027 -12.6166 11.8413 0.355957 0.0223591 0.934077
16.8795 -13.6508 12.3621 0.373222 0.0118507 0.927329
16.1193 -14.5057 12.6789 0.344631 0.0339613 0.938124
15.4452 -15.489 12.9689 0.35934 0.0514354 0.931787
14.9581 -16.3499 13.2043 0.364205 0.0387025 0.93039
14.3159 -17.4366 13.5445 0.426605 0.0628736 0.90225
13.2844 -18.5443 14.1129 0.430615 0.0649668 0.900194
11.8718 -19.0655 14.7733 0.390093 0.0252491 0.920424
10.8931 -18.9415 15.1826 0.387098 0.0213078 0.921793
9.7689 -18.4616 15.6359 0.348346 0.0798277 0.93396
8.62039 -17.9659 16.021 0.30584 0.0603206 0.948945
7.903 -17.7975 16.2122 0.266997 0.040638 0.962839
7.7813 -18.4945 16.2745 0.267353 0.0392669 0.962798
6.53791 -18.3507 16.614 0.266922 0.0405279 0.962864
5.61099 -18.4791 16.9637 0.361701 0.0158379 0.932154
4.61754 -18.8644 17.3518 0.266414 0.0441996 0.957455
3.38112 -19.5042 17.5545 0.103548 0.144412 0.984076
2.57163 -20.0823 17.7286 0.125492 0.150253 0.980469
1.39182 -21.0421 17.9943 0.102888 0.0752044 0.991814
0.721166 -21.7899 18.1118 0.0965744 0.0582768 0.993605
0.242358 -22.6769 18.1448 -0.149426 0.0939439 0.984299
0.0666659 -23.7577 18.2094 -0.127412 0.0958989 0.986948
0.614389 -24.927 18.3206 0.0678343 0.0777623 0.994661
1.78137 -26.5227 18.4114 0.0470505 0.12053 0.991592
2.45496 -27.341 18.4411 0.177041 0.114514 0.977429
3.67029 -28.6752 18.3945 0.195845 0.156699 0.96803
4.27401 -29.6024 18.3224 0.277763 0.0907436 0.956314
4.76758 -30.543 18.2703 0.231273 0.108259 0.966844
5.36474 -31.5773 18.2455 0.235643 0.172771 0.954228
6.35572 -32.7543 18.1424 0.371472 0.130162 0.919272
7.26362 -33.4468 17.8986 0.340265 0.102725 0.934559
8.35783 -33.708 17.5125 0.351139 0.0890835 0.932073
9.68514 -33.5687 16.9567 0.406883 0.0795768 0.909499
10.5658 -33.2749 16.5187 0.439717 0.0707506 0.895211
11.434 -32.797 16.0333 0.462393 0.0491251 0.885056
12.5651 -32.0914 15.4498 0.43141 0.0127291 0.902066
13.3909 -31.6771 15.0626 0.420208 0.0141215 0.907299
14.2992 -31.3473 14.6202 0.419897 0.0631934 0.90536
15.9927 -31.3298 13.7702 0.470421 0.0806649 0.878746
16.865 -31.7071 13.3436 0.467029 0.0847716 0.880169
18.237 -32.5882 12.7531 0.422029 0.0536474 0.904993
19.2108 -33.2655 12.3299 0.428606 0.0345808 0.9028
20.1321 -33.9478 11.9125 0.435829 0.0370625 0.899265
21.2496 -35.0677 11.4229 0.451375 0.0452405 0.890936
22.0966 -36.2162 11.0411 0.470867 0.0510684 0.880724
22.6601 -37.1974 10.7896 0.470546 0.0256141 0.881774
23.0573 -38.1195 10.5935 0.437188 0.0534205 0.897766
23.2142 -39.5569 10.6049 0.43541 0.0507537 0.8988
23.131 -41.2735 10.7326 0.43636 0.0405123 0.89886
23.0307 -42.3123 10.8242 0.433914 0.0244979 0.900621
22.5503 -43.4693 11.0867 0.437378 0.0255074 0.898905
21.9759 -44.2872 11.399 0.442494 0.0330295 0.896163
21.1927 -45.0674 11.819 0.456268 0.0369859 0.889071
20.4804 -45.7317 12.2101 0.455862 0.0350395 0.889361
19.7028 -46.4008 12.6379 0.458843 0.0343983 0.887848
18.799 -46.9156 13.1241 0.466608 0.0371673 0.88363
17.9233 -47.1362 13.6065 0.453061 0.0541203 0.88945
16.9495 -47.2456 14.1016 0.479764 0.10275 0.87136
16.0482 -47.2945 14.6036 0.489005 0.0979656 0.866687
15.179 -47.313 15.1024 0.479889 0.0762568 0.874009
13.5431 -47.4076 16.0191 0.481349 0.0493332 0.875017
12.4304 -47.9758 16.6389 0.4611 0.0497596 0.885899
11.4779 -49.0827 17.2728 0.487734 0.0808053 0.869244
10.2684 -49.7749 17.9533 0.466643 0.0525785 0.882869
9.28262 -49.8609 18.4635 0.446345 0.0260918 0.894481
8.31263 -49.8739 18.9469 0.410794 0.0414312 0.909877
7.35905 -49.858 19.3333 0.374333 0.0559895 0.925602
5.70581 -49.859 19.9294 0.284533 0.0858274 0.954742
4.7298 -49.8882 20.2114 0.274068 0.0789995 0.95846
3.53956 -49.9079 20.5297 0.206649 0.0616052 0.976471
2.29631 -49.9367 20.7911 0.187296 0.0773298 0.979025
1.04509 -49.9643 20.9388 0.0838524 0.067762 0.994171
0.0299678 -50.0242 21.0205 0.0241511 0.0909217 0.994063
-1.43323 -50.0218 20.9081 -0.0901452 0.128711 0.987565
-2.52269 -50.056 20.744 -0.185699 0.109667 0.976464
-3.64363 -50.0575 20.5248 -0.256245 0.0884223 0.960127
-4.97233 -49.9586 20.0362 -0.357608 0.0401257 0.933009
-6.45577 -49.8751 19.3382 -0.452622 0.0616251 0.889559
-7.84308 -49.7883 18.5916 -0.48614 0.0560404 0.872082
-9.23515 -49.6383 17.8305 -0.461761 0.0533836 0.885396
-10.3699 -49.3972 17.2223 -0.463143 0.0533867 0.884674
-11.4202 -48.8548 16.6349 -0.470814 0.058792 0.880271
-12.3063 -48.0195 16.0984 -0.50926 0.0489586 0.859169
-13.0508 -47.3262 15.6155 -0.523636 0.0450813 0.850749
-13.6992 -46.5482 15.1718 -0.526882 0.0564253 0.848022
-14.2186 -45.7017 14.7852 -0.526052 0.0648917 0.847973
-14.7868 -44.7557 14.4325 -0.480379 0.0569139 0.874866
-15.4144 -43.7804 14.0236 -0.455737 0.0615811 0.887982
-15.929 -42.921 13.7032 -0.442138 0.036516 0.895749
-16.2254 -41.9432 13.5487 -0.426494 0.0170886 0.904319
-16.2213 -40.5966 13.5313 -0.462453 0.0327649 0.885785
-15.9732 -39.4409 13.6038 -0.477412 0.0486348 0.877332
-15.2207 -38.239 13.951 -0.483172 0.0472145 0.874251
-14.2444 -37.4152 14.4114 -0.430211 0.0678183 0.900165
-13.0735 -36.8385 14.9238 -0.460815 0.0535118 0.884957
-11.9205 -36.4177 15.56 -0.488777 0.0631337 0.869831
-10.8632 -35.9461 16.0626 -0.423807 0.054011 0.904141
-9.58472 -35.0501 16.5754 -0.394487 0.0481525 0.917318
-8.84073 -34.3527 16.8787 -0.379479 0.0337393 0.924364
-8.16049 -33.3614 17.0914 -0.361728 0.0873283 0.927435
-7.58554 -31.7028 17.1204 -0.401242 0.110048 0.909323
-7.21914 -30.4963 17.1222 -0.386666 0.133412 0.912363
-6.48944 -29.1028 17.2037 -0.355398 0.0899095 0.928589
-5.87463 -28.1577 17.3542 -0.312127 0.0632845 0.947928
-4.75288 -27.0667 17.6061 -0.267103 0.115968 0.956568
-3.99622 -26.3186 17.717 -0.25276 0.115257 0.960635
-3.27981 -25.3249 17.7977 -0.257784 0.104009 0.960588
-2.67382 -23.7685 17.7601 -0.195162 0.0978248 0.975666
-2.7618 -22.4516 17.6279 -0.17992 0.0868831 0.979837
-3.16312 -21.4442 17.4573 -0.179299 0.0954594 0.979152
-3.79429 -20.5613 17.2013 -0.239731 0.0890581 0.966077
-4.57971 -19.8909 16.9678 -0.242282 0.0539711 0.968703
-5.719 -19.2295 16.6488 -0.232646 0.0573311 0.970831
-6.67201 -18.9685 16.3525 -0.304552 0.0851308 0.948564
-7.92763 -18.8933 15.9461 -0.319095 0.0745764 0.944649
-9.00654 -18.9763 15.5559 -0.381128 0.0447414 0.923429
-10.779 -19.3129 14.8224 -0.405075 0.0605884 0.912061
-11.6832 -19.417 14.4044 -0.422349 0.0779646 0.903062
-12.8325 -19.2368 13.8571 -0.377573 0.0508392 0.923153
-14.1886 -18.2937 13.3104 -0.38715 0.0413424 0.920931
-14.8566 -17.349 12.968 -0.411115 0.0302258 0.911076
-15.4149 -16.2394 12.6899 -0.395565 0.0330232 0.917841
-15.8591 -15.158 12.4484 -0.399288 0.0494693 0.915489
-16.3446 -14.211 12.2174 -0.3753 0.0286249 0.926461
-17.302 -12.7452 11.7868 -0.355745 0.0293229 0.934123
-18.0797 -12.0278 11.4424 -0.404273 0.0215855 0.914348
-18.9797 -11.5769 11.0252 -0.408759 0.0279765 0.912214
-20.2017 -11.3864 10.4903 -0.389118 0.0385247 0.92037
-21.3492 -11.5076 10.0073 -0.380729 0.0438494 0.923574
-22.242 -11.9049 9.661 -0.390383 0.0111999 0.920584
-23.0976 -12.5334 9.30549 -0.387152 0.0114804 0.921936
-23.8796 -13.3156 8.97738 -0.393849 -0.00640646 0.919153
-24.6122 -14.0808 8.65779 -0.405863 -0.00700846 0.913818
-25.3401 -14.7712 8.34549 -0.404102 0.0185262 0.914526
-26.0898 -15.361 8.0267 -0.398574 0.0193079 0.916915
-27.0567 -15.8188 7.59891 -0.404718 -0.00313956 0.914436
-28.1074 -16.1561 7.14595 -0.380855 0.00417214 0.924602
-29.1153 -16.4434 6.74052 -0.369097 0.0119809 0.92929
-30.4815 -16.5485 6.20968 -0.357507 0.00606455 0.933846
-31.4823 -16.5501 5.79946 -0.387006 0.00511926 0.922059
-32.9255 -16.1708 5.1837 -0.391563 0.00762143 0.920113
-33.9825 -15.5701 4.76427 -0.350376 0.0138617 0.936496
-34.6634 -14.8736 4.5029 -0.334173 0.0102733 0.942347
-35.1719 -13.6147 4.30871 -0.324337 0.033533 0.945334
-35.265 -12.123 4.23855 -0.350257 0.0133812 0.936557
-35.0059 -10.9978 4.31835 -0.350548 0.0143103 0.936435
-34.4652 -9.83225 4.50315 -0.35035 0.0112947 0.936546
-33.7682 -8.81644 4.75452 -0.350033 0.00810398 0.936702
-33.0411 -7.89895 5.05626 -0.381544 -0.00927756 0.924304
-32.4897 -6.93288 5.30544 -0.37513 -0.0181363 0.926768
-32.0717 -5.89372 5.48613 -0.37171 -0.00271739 0.928296
-31.7578 -4.89871 5.60461 -0.372458 0.00714495 0.928022
-31.5244 -3.50248 5.70001 -0.394683 0.0128895 0.918727
-31.4738 -2.33546 5.70877 -0.391056 0.00798977 0.920331
-31.5895 -1.04751 5.67429 -0.371389 -0.0288516 0.928029
-31.66 0.13663 5.68295 -0.37265 -0.0302384 0.927478
-31.6479 1.27165 5.7203 -0.379625 -0.0237802 0.924835
-31.66 2.46641 5.74595 -0.368053 -0.00727198 0.929543
-31.8004 3.78948 5.66629 -0.361073 0.0232943 0.932242
-32.0495 4.78639 5.53997 -0.371669 0.0248112 0.928034
-32.4439 5.99124 5.34975 -0.373959 0.0274057 0.927024
-33.2446 7.57424 4.98692 -0.370558 0.0266275 0.928427
-34.188 9.08248 4.63131 -0.3275 -0.0218026 0.944599
-34.9138 10.324 4.40351 -0.334482 -0.0137289 0.942302
-35.189 11.3631 4.31925 -0.333331 -0.0102486 0.942754
-35.1456 12.8432 4.346 -0.34407 -0.0184068 0.938635
-34.3859 14.2755 4.68873 -0.363813 -0.0359349 0.930778
-33.3697 15.0501 5.11285 -0.354213 -0.0311773 0.934622
-32.4151 15.5755 5.4714 -0.362032 -0.0163278 0.931621
-31.249 15.8647 5.97457 -0.391647 -0.00940381 0.920005
-30.2125 15.8845 6.42426 -0.408427 0.00611996 0.912739
-29.1183 15.7378 6.92123 -0.401142 0.0112713 0.915865
-28.1512 15.5627 7.33408 -0.402085 -0.00288262 0.915598
-26.6039 14.9874 7.98714 -0.380788 -0.0129974 0.924571
-25.57 14.4174 8.37981 -0.352371 -0.0148343 0.935708
-24.6068 13.6853 8.72351 -0.365817 -0.00563419 0.930553
-23.8447 13.0668 9.04061 -0.416938 -0.0285704 0.908486
-22.4642 12.1361 9.65673 -0.426818 -0.0234106 0.904033
-21.5677 11.7583 10.0701 -0.425421 -0.0236396 0.904686
-20.0064 11.5878 10.7904 -0.415071 -0.0368792 0.909031
-18.5541 11.9922 11.4248 -0.37517 -0.0406444 0.926064
-17.7166 12.4489 11.7925 -0.392002 -0.0777512 0.916604
-16.9109 13.0233 12.1976 -0.406022 -0.0747775 0.91078
-16.0685 13.7509 12.6373 -0.408696 -0.070338 0.909944
-15.2006 14.7682 13.0317 -0.383505 -0.0174818 0.923373
-14.5729 15.5154 13.3061 -0.383905 -0.0181338 0.923194
-13.7748 16.3459 13.6615 -0.39866 -0.0176092 0.91693
-13.0967 17.087 13.9784 -0.409035 -0.030555 0.912007
-12.2527 17.9223 14.385 -0.406465 -0.0398695 0.912737
-11.1489 18.6545 14.9612 -0.442951 -0.0378667 0.895745
-10.2028 18.9224 15.455 -0.418399 -0.0691114 0.90443
-8.6238 19.0635 16.1149 -0.384698 -0.0911783 0.918463
-7.59898 19.2663 16.5367 -0.352086 -0.114243 0.928969
-6.71417 19.6706 16.9288 -0.381852 -0.116193 0.916477
-5.90109 20.2738 17.3913 -0.41102 -0.13274 0.901899
-5.23192 21.0133 17.7529 -0.356256 -0.0985613 0.929175
-4.71048 21.8585 18.0451 -0.35592 -0.123434 0.92632
-4.281 23.06 18.3665 -0.350098 -0.121378 0.928812
-4.10064 24.2196 18.579 -0.34858 -0.111301 0.930644
-4.11175 25.6398 18.7347 -0.368202 -0.0880606 0.925237
-4.21796 26.6924 18.7571 -0.361677 -0.0488586 0.930987
-4.47049 27.7868 18.6996 -0.375976 -0.06425 0.923693
-4.86076 28.7647 18.676 -0.355442 -0.126751 0.926054
-5.46746 29.8624 18.6069 -0.387362 -0.13601 0.910777
-6.38543 30.8663 18.3018 -0.40748 -0.103966 0.907005
-7.40507 31.3952 17.9494 -0.380636 -0.188431 0.905321
-8.80387 31.8507 17.3729 -0.459962 -0.0939199 0.882709
-9.64728 32.3377 17.0046 -0.44084 -0.0902531 0.893036
-10.5944 32.989 16.6031 -0.433144 -0.0872881 0.897088
-11.8649 34.2899 16.0743 -0.456479 -0.0474956 0.888441
-12.3837 35.1767 15.8492 -0.459597 -0.0601253 0.885989
-13.4445 36.438 15.411 -0.455667 -0.0747661 0.886999
-14.4411 37.8361 14.94 -0.504034 -0.0665103 0.861119
-14.9501 38.9387 14.7135 -0.507803 -0.0441631 0.860198
-15.3385 39.9555 14.5291 -0.491862 -0.0419638 0.869662
-15.6456 40.943 14.4031 -0.493373 -0.0520931 0.868196
-16.0958 42.5701 14.2398 -0.509821 -0.0465305 0.859021
-16.2941 43.5613 14.1982 -0.511666 -0.0715438 0.8562
-16.2046 45.1471 14.3967 -0.509602 -0.0839727 0.856302
-15.8651 46.17 14.7168 -0.520112 -0.101387 0.848059
-15.4006 46.9778 15.0983 -0.50868 -0.0960791 0.855452
-14.4173 47.9212 15.7487 -0.494045 -0.077196 0.866
-13.5641 48.5357 16.345 -0.535681 -0.101167 0.838338
-12.2283 49.2491 17.2476 -0.527271 -0.0722076 0.846512
-11.0443 49.5566 18.0506 -0.58681 -0.105146 0.802865
-10.0975 49.7182 18.7652 -0.583852 -0.0827419 0.807344
-8.60175 49.8153 19.6985 -0.523889 -0.0305524 0.851231
-7.57887 49.8884 20.1812 -0.408442 -0.0392411 0.911939
-6.63714 49.9199 20.6366 -0.476716 -0.134047 0.868559
-5.68734 49.9025 21.1778 -0.487116 -0.142058 0.8617
-4.69686 49.9506 21.6495 -0.387286 -0.0823884 0.917843
-3.69546 50.0135 22.0533 -0.313537 -0.0936701 0.943923
-2.14951 50.0149 22.5313 -0.293636 -0.118294 0.94857
-0.376157 50.0597 22.8544 -0.152987 -0.0937422 0.983465
1.23487 50.066 22.9823 -0.0594816 -0.10573 0.992614
2.40931 50.0625 22.8989 0.110751 -0.0606726 0.991955
3.94902 50.0223 22.5247 0.302294 -0.128613 0.944446
5.00451 49.9765 22.1706 0.313191 -0.136489 0.939822
5.93196 49.9263 21.7766 0.441901 -0.0698324 0.894335
7.32623 49.8188 21.047 0.482417 -0.0860094 0.871656
8.18117 49.5931 20.5418 0.49137 -0.0826513 0.86702
9.07285 48.9207 19.939 0.566553 -0.0926761 0.818797
9.67719 48.133 19.4325 0.564313 -0.0749367 0.821968
10.3163 47.3284 18.965 0.509839 -0.0451066 0.859086
11.0483 46.5255 18.4884 0.512023 -0.0653884 0.856233
11.8338 45.7887 17.953 0.498886 -0.0810473 0.862869
12.7138 45.2047 17.3911 0.492837 -0.0684031 0.867324
13.6182 44.9036 16.8708 0.500037 -0.0137733 0.865894
14.6762 44.5552 16.2171 0.538375 -0.0493372 0.8412
15.6872 43.5638 15.5048 0.528033 -0.0651257 0.846723
16.2113 42.5237 15.1159 0.478393 -0.0711822 0.875254
16.5742 41.1137 14.785 0.473713 -0.0861343 0.876457
16.5468 39.5481 14.6914 0.453275 -0.0440343 0.890238
16.4493 38.5505 14.6987 0.460978 -0.0309417 0.886843
16.1291 37.0786 14.8236 0.459313 -0.0296086 0.887773
15.8983 36.0541 14.883 0.461004 -0.0597959 0.885381
15.6865 35.0643 14.9259 0.460747 -0.0603144 0.88548
15.3818 34.0859 15.0435 0.456044 -0.0321797 0.889373
14.9094 32.532 15.1917 0.425023 -0.0540176 0.903568
14.2207 31.2316 15.4392 0.425211 -0.0694967 0.902231
13.1566 29.8536 15.7837 0.40059 -0.0987347 0.910922
12.2942 29.0003 16.0836 0.435279 -0.0802237 0.896714
11.3786 28.1794 16.4469 0.421594 -0.100439 0.901183
10.6115 27.2687 16.6958 0.408968 -0.113229 0.905449
10.103 26.2177 16.7751 0.397205 -0.143982 0.906237
9.76249 25.2662 16.777 0.388985 -0.103548 0.915213
9.69491 24.2449 16.7128 0.387628 -0.0769372 0.9186
10.3708 22.5881 16.3124 0.343566 -0.0776424 0.935911
11.1479 21.9194 15.974 0.338622 -0.06331 0.938699
11.9798 21.4833 15.6026 0.388534 -0.0553158 0.919773
12.9927 20.8004 15.1234 0.426155 -0.0679336 0.901933
14.1184 19.6282 14.4699 0.435439 -0.0796507 0.896687
14.803 18.2595 14.0501 0.407063 -0.0627552 0.91112
15.5184 16.9874 13.6601 0.424757 -0.0526779 0.903758
16.1974 16.0501 13.2695 0.424012 -0.0753428 0.902517
17.0397 15.2978 12.8163 0.4207 -0.0712828 0.904395
18.0375 14.8725 12.3389 0.403129 -0.0755217 0.912019
19.0717 14.766 11.8708 0.40094 -0.0877895 0.911885
20.4838 15.0431 11.2923 0.389201 -0.0789332 0.917764
21.6052 15.6995 10.8271 0.420474 -0.0543595 0.905674
22.4115 16.3646 10.4931 0.415049 -0.0605058 0.907741
23.1789 17.2153 10.1973 0.417622 -0.0616596 0.906526
24.4303 18.175 9.69202 0.391546 -0.0329407 0.919568
25.414 18.6294 9.28558 0.404504 -0.0264368 0.914154
26.7473 19.0371 8.70845 0.408854 -0.0226295 0.91229
27.8718 19.2272 8.2001 0.412263 -0.0260957 0.910677
29.2421 19.1965 7.57896 0.411732 -0.0224757 0.91095
30.3832 18.8058 7.07014 0.389822 -0.0226839 0.920588
31.2946 18.0794 6.67211 0.393413 -0.0209601 0.919107
31.8454 17.153 6.40907 0.383675 -0.0251648 0.922994
32.1753 16.1536 6.25219 0.362935 -0.0158205 0.93168
32.2588 15.1058 6.20227 0.363952 -0.0116336 0.931339
32.1177 14.0874 6.23793 0.392515 -0.034904 0.918885
31.7846 13.1272 6.36391 0.403968 -0.0206906 0.914539
31.4398 12.1498 6.49292 0.389053 -0.0341304 0.920581
31.237 10.415 6.51498 0.35987 -0.0358122 0.932314
31.3874 9.21733 6.42147 0.359412 -0.00558006 0.933159
31.6366 7.91428 6.32015 0.367936 -0.00954936 0.929716
32.0456 6.88758 6.16267 0.376451 0.013917 0.926332
32.7105 6.00345 5.90529 0.369484 0.000662658 0.929207
33.8122 4.70629 5.4997 0.350364 -0.000378626 0.936604
34.3843 3.7131 5.2542 0.371254 -0.0129367 0.928419
34.5949 2.41443 5.1604 0.37875 -0.00940298 0.925387
34.465 0.838628 5.19983 0.356986 -0.00790501 0.934076
34.1565 -0.116315 5.30939 0.356979 -0.00801455 0.934078
33.6857 -1.18998 5.49089 0.365979 0.000508094 0.930623
33.1121 -2.41364 5.71818 0.365907 0.00408603 0.930637
32.7631 -3.50512 5.88174 0.372885 0.0203512 0.927654
32.455 -4.57578 6.02136 0.360078 -0.0167472 0.93277
32.1742 -5.71948 6.10567 0.359544 -0.0251386 0.932778
32.0389 -6.85223 6.12871 0.371471 -0.0202302 0.928188
31.978 -7.85635 6.13584 0.383187 0.00460627 0.923412
32.0256 -9.50309 6.18184 0.372311 0.0400154 0.927245
32.1443 -10.5781 6.14107 0.357735 0.000296208 0.933805
32.4133 -11.731 6.04497 0.355421 0.00929158 0.934647
32.8054 -12.8218 5.90774 0.362235 0.00694871 0.932061
33.3678 -13.9819 5.69686 0.36502 0.0131148 0.930878
34.0846 -15.2388 5.41957 0.388415 0.0174849 0.921319
34.5349 -16.3811 5.23692 0.397554 0.00314325 0.917569
34.6813 -17.4019 5.17584 0.395442 0.00199646 0.918489
34.5007 -19.1751 5.26829 0.342864 -0.0079831 0.939351
33.7176 -20.52 5.55507 0.365926 -0.0291981 0.930184
32.915 -21.1323 5.85254 0.361147 -0.0296609 0.932014
31.7062 -21.5122 6.34863 0.381151 0.0111574 0.924445
30.5417 -21.6638 6.80837 0.354308 0.00845262 0.935059
29.2099 -21.5296 7.32598 0.377981 0.00419337 0.925802
27.6886 -21.0804 7.94091 0.381609 0.011784 0.924247
26.7557 -20.6812 8.32464 0.407432 0.0329349 0.912557
25.8466 -20.0594 8.75858 0.435037 0.00314658 0.900407
25.1599 -19.4013 9.08442 0.407389 0.0131682 0.913091
24.5166 -18.6303 9.34802 0.399946 0.0214273 0.916288
23.8118 -17.7613 9.62231 0.377526 0.0206273 0.925766
23.1925 -16.7899 9.85023 0.375074 0.0268325 0.926597
22.509 -15.2463 10.0748 0.382666 0.0257045 0.923474
21.9517 -14.0986 10.2942 0.385228 0.00821285 0.922704
21.1853 -13.2601 10.6205 0.402263 0.00487806 0.91551
19.5746 -12.8123 11.2826 0.363164 0.015128 0.9316
18.6206 -13.1027 11.6553 0.350807 0.00895392 0.936318
17.4543 -14.0482 12.1205 0.380582 -0.0118901 0.924671
16.6402 -14.9769 12.486 0.403732 0.0200939 0.914656
16.0036 -15.9184 12.7763 0.365532 0.0380918 0.929912
15.3635 -17.174 13.0648 0.370173 0.0241693 0.928648
14.3156 -18.6565 13.6282 0.4133 0.0641586 0.908215
13.5743 -19.3316 14.0147 0.429495 0.0447796 0.901958
12.4335 -19.8008 14.5569 0.387486 0.0239273 0.921565
11.2984 -19.8516 15.0333 0.386153 0.022044 0.92217
10.4098 -19.5993 15.4167 0.406497 0.0295759 0.913173
9.0353 -18.9088 15.9462 0.315999 0.0605016 0.946126
8.05506 -18.5393 16.2003 0.26581 0.0400968 0.96319
7.69908 -19.159 16.3337 0.265604 0.0613454 0.962121
6.41085 -19.0215 16.7021 0.313813 0.074136 0.946356
5.47378 -19.2215 17.051 0.333847 0.0747506 0.939658
4.49716 -19.7251 17.4351 0.254252 0.0658337 0.961632
3.19072 -20.5343 17.728 0.143638 0.109479 0.982218
1.98787 -21.5486 17.9677 0.109526 0.0669859 0.991698
1.18697 -22.5419 18.109 0.0943516 0.0520672 0.994174
0.971821 -23.689 18.1884 0.0883089 0.0724436 0.993212
1.47927 -24.793 18.2491 0.0788126 0.0825648 0.993448
2.10903 -25.6729 18.2904 0.111401 0.122311 0.984357
3.03099 -26.8534 18.2792 0.169028 0.125132 0.977636
4.02974 -27.9283 18.1989 0.195527 0.127338 0.971902
4.66057 -28.8138 18.1352 0.236798 0.0755469 0.968612
5.53628 -30.5236 18.0828 0.265357 0.124991 0.956013
6.17156 -31.5772 18.0498 0.295636 0.123457 0.946696
6.88379 -32.3776 17.9014 0.327893 0.115642 0.937609
7.7794 -32.9522 17.6555 0.344763 0.103858 0.932855
9.09121 -32.9711 17.1409 0.386308 0.103168 0.916581
10.2371 -32.6466 16.6179 0.382401 0.116907 0.916542
11.4239 -31.9381 15.9921 0.432093 0.0507348 0.900394
12.4745 -31.2774 15.4807 0.40812 0.0248863 0.912517
13.6998 -30.7476 14.8785 0.452143 0.0307156 0.891416
14.8855 -30.5203 14.2872 0.446527 0.0729471 0.891343
16.4426 -30.6452 13.4652 0.468789 0.0835162 0.879349
17.8582 -31.4843 12.8624 0.412357 0.0607267 0.908996
18.7023 -32.0336 12.5036 0.421683 0.053502 0.905164
19.8159 -32.8117 12.0136 0.439198 0.0578047 0.896529
20.6045 -33.3811 11.6592 0.435188 0.0388208 0.899499
21.4936 -34.3314 11.2501 0.469369 0.0518319 0.88148
22.2257 -35.2327 10.9135 0.470327 0.0544727 0.880808
22.9288 -36.3424 10.6087 0.463959 0.0484895 0.884498
23.5474 -37.4451 10.3235 0.469186 0.0193217 0.882803
23.8693 -38.39 10.2141 0.437188 0.0534205 0.897766
23.9621 -39.4708 10.2391 0.422808 0.0512279 0.904737
23.8393 -40.4989 10.3585 0.431273 0.045967 0.901012
23.8283 -42.1158 10.4318 0.433044 0.038924 0.900523
23.5566 -43.0577 10.5943 0.427411 0.0315904 0.903505
22.8261 -44.3688 10.9862 0.433007 0.0349005 0.90069
22.0107 -45.3143 11.4233 0.438457 0.0359745 0.898031
21.1992 -46.014 11.8559 0.450171 0.0400005 0.892046
20.43 -46.8148 12.2763 0.453801 0.0249672 0.890695
19.0723 -47.6458 13.0099 0.467619 0.0366293 0.883116
17.8693 -47.8782 13.6699 0.472786 0.0348169 0.880469
16.7749 -47.9752 14.274 0.485186 0.0316995 0.873834
15.8783 -48.0188 14.7746 0.476927 0.0245514 0.878498
14.9679 -48.0479 15.2792 0.483976 0.00378494 0.875063
13.8229 -48.0215 15.8998 0.481349 0.0493332 0.875017
12.7932 -48.5204 16.4761 0.482245 0.0647437 0.873373
12.0519 -49.5896 16.9977 0.492151 0.0790428 0.866898
11.3774 -50.3685 17.4002 0.466111 0.0310706 0.88418
10.4167 -50.5138 17.9108 0.454957 0.0192658 0.890155
9.35515 -50.5527 18.4408 0.447741 0.00636497 0.894141
8.29952 -50.574 18.9678 0.447139 0.00820534 0.894425
7.24575 -50.5693 19.4216 0.376157 0.0540557 0.924975
6.26447 -50.5796 19.8197 0.359936 0.0451036 0.931679
5.25693 -50.6198 20.1204 0.276899 0.0595127 0.959054
4.16001 -50.6185 20.4342 0.270305 0.0811663 0.959338
2.9802 -50.6662 20.708 0.219471 0.135223 0.966202
1.62115 -50.6838 20.9522 0.0779717 0.103543 0.99146
0.384869 -50.7489 21.0696 0.0832014 0.0996062 0.991508
-0.63709 -50.7606 21.0573 -0.0306126 0.071492 0.996971
-1.87828 -50.7342 20.9518 -0.147667 0.123335 0.979896
-3.50925 -50.7608 20.6261 -0.262659 0.0867961 0.957459
-4.57069 -50.6964 20.2213 -0.358873 0.0506183 0.931945
-5.76437 -50.6602 19.7594 -0.409229 0.0578279 0.908717
-6.77068 -50.6044 19.2229 -0.482495 0.039038 0.875028
-7.6832 -50.5069 18.7158 -0.481117 0.038519 0.87581
-8.61057 -50.4552 18.2047 -0.474853 0.0415703 0.879054
-9.83699 -50.3027 17.5481 -0.465104 0.0417446 0.884269
-11.3857 -49.8167 16.7163 -0.478088 0.0275212 0.877626
-12.4244 -48.9221 16.0759 -0.502459 0.0395954 0.863681
-13.1522 -48.2673 15.6034 -0.519204 0.0512796 0.853099
-13.8035 -47.6425 15.1718 -0.51832 0.0490984 0.853776
-14.5229 -46.5589 14.6661 -0.520853 0.061269 0.851426
-15.0518 -45.5999 14.3173 -0.474566 0.0378172 0.879335
-15.6965 -44.647 13.9343 -0.465386 0.0498562 0.883663
-16.4025 -43.5857 13.4979 -0.461297 0.0549759 0.885541
-16.8382 -42.6956 13.2742 -0.42502 0.0196335 0.904967
-16.9825 -41.7074 13.1835 -0.429417 0.0193934 0.902898
-16.8643 -40.3012 13.1666 -0.460231 0.0550871 0.885861
-16.6822 -39.3182 13.2154 -0.468911 0.0457256 0.882053
-16.0136 -38.1066 13.5119 -0.473319 0.0400114 0.879979
-14.8578 -36.8851 14.08 -0.474653 0.0428584 0.879115
-14.0399 -36.4109 14.435 -0.426581 0.0668253 0.901977
-13.1474 -36.0758 14.8386 -0.460185 0.0569925 0.884908
-11.9683 -35.6817 15.4612 -0.486161 0.0860753 0.869619
-11.0934 -35.304 15.8896 -0.464713 0.0941555 0.880436
-10.1048 -34.5936 16.3379 -0.428174 0.0495351 0.901327
-9.13931 -33.7402 16.7222 -0.385108 0.0514227 0.921354
-8.42274 -32.4444 16.8564 -0.374776 0.13316 0.917502
-8.04537 -30.7425 16.7899 -0.403593 0.120625 0.906948
-7.5841 -29.6183 16.8297 -0.369363 0.106081 0.922236
-7.05019 -28.5409 16.9826 -0.353146 0.0394488 0.934488
-6.29402 -27.4609 17.1696 -0.31381 0.0630033 0.947386
-5.26066 -26.5227 17.3922 -0.281381 0.109197 0.953352
-4.51654 -25.841 17.5221 -0.259641 0.0957958 0.960758
-3.89529 -25.0109 17.6013 -0.228979 0.0829429 0.969777
-3.40531 -23.5612 17.6076 -0.201269 0.0785551 0.976137
-3.54827 -22.391 17.4781 -0.179587 0.0906713 0.979547
-3.94834 -21.4664 17.2808 -0.240535 0.126669 0.96234
-4.79034 -20.6242 16.9579 -0.242152 0.09183 0.965223
-5.63831 -20.0408 16.7184 -0.225897 0.0618505 0.972185
-7.18194 -19.5942 16.2557 -0.309331 0.106559 0.944938
-8.35385 -19.6365 15.8404 -0.36112 0.0468025 0.931324
-9.66268 -19.8482 15.327 -0.384722 0.0420502 0.922039
-10.9432 -20.1074 14.7896 -0.39653 0.0254103 0.917487
-12.3114 -20.1944 14.1742 -0.423891 0.0464204 0.904522
-13.2131 -19.9339 13.741 -0.405396 0.0488789 0.912644
-14.1771 -19.3501 13.3413 -0.373305 0.00829991 0.927672
-15.0131 -18.4826 12.9572 -0.396994 0.0465499 0.916624
