23.6108 -11.8526 11.3792 0.42007 0.037773 0.906705
24.3716 -12.6468 11.049 0.435301 0.0288057 0.89982
24.9584 -13.5991 10.7908 0.437829 0.0256022 0.898694
25.4232 -14.6324 10.6002 0.435553 0.031067 0.899623
25.8215 -15.5519 10.4288 0.417438 0.023312 0.908321
26.3562 -16.9057 10.2331 0.4097 0.0277752 0.911797
26.937 -17.9182 9.97337 0.423988 0.00485631 0.905631
27.8086 -19.0905 9.56288 0.427375 -0.0135331 0.903973
28.5387 -19.7472 9.20686 0.408837 -0.0110775 0.912287
29.6965 -20.3774 8.71981 0.38604 -0.00253364 0.922475
31.0767 -20.7882 8.12342 0.398214 -0.00339794 0.917286
32.2825 -20.8323 7.62174 0.383004 -0.0132256 0.923652
33.3095 -20.5077 7.20083 0.378135 -0.0162117 0.925591
34.0754 -19.8345 6.90268 0.374327 -0.0103189 0.927239
34.4904 -18.3669 6.75151 0.375736 -0.00969919 0.926674
34.4118 -17.3307 6.78282 0.390649 0.00254018 0.920536
34.0332 -16.0467 6.93838 0.388091 0.00995463 0.921555
33.4216 -14.6151 7.17291 0.384332 0.0108176 0.923128
32.8514 -13.2279 7.37929 0.368639 0.0184416 0.92939
32.5077 -12.159 7.51845 0.379592 -0.00841011 0.925057
32.223 -10.9843 7.63699 0.387181 0.0194353 0.921799
32.0403 -9.90451 7.69233 0.380696 0.00986716 0.924638
31.952 -8.30458 7.72142 0.390375 0.00287864 0.920651
32.0434 -6.67912 7.69541 0.380529 -0.0128553 0.92468
32.1633 -5.57946 7.64886 0.391767 0.0145075 0.91995
32.5062 -3.68082 7.46405 0.387832 0.0219739 0.921465
32.781 -2.67331 7.32693 0.384435 0.018252 0.922967
33.1548 -1.60824 7.17017 0.383236 -0.00636048 0.9236
33.6092 -0.571603 6.98802 0.374793 -0.00213646 0.927105
34.0769 0.37503 6.80263 0.371639 -0.00531602 0.928356
34.4904 1.47858 6.64916 0.372328 -0.00777585 0.928061
34.5851 2.65473 6.61813 0.375273 -0.00668983 0.92689
34.2664 3.59437 6.75497 0.37686 -0.00839999 0.926232
33.5321 4.60286 7.06234 0.377151 0.00177854 0.926099
32.7398 5.53169 7.38581 0.393197 0.00776615 0.919421
32.157 6.35534 7.62668 0.389717 0.00693167 0.920908
31.5353 7.68683 7.89019 0.413182 0.00268717 0.910641
31.2037 9.12422 8.05122 0.417304 -0.0164088 0.908617
31.12 10.3318 8.16175 0.434601 -0.0549287 0.898945
31.2263 11.4578 8.17465 0.443426 -0.0228535 0.895911
31.4638 12.6107 8.0726 0.437087 -0.00961636 0.899367
31.7928 13.7934 7.94734 0.411494 -0.0246167 0.910933
32.0593 14.9224 7.84186 0.405671 -0.0119452 0.913939
31.984 16.634 7.90721 0.408245 -0.0172444 0.912704
31.3815 17.6323 8.19372 0.412236 -0.0193162 0.910866
30.4262 18.163 8.64218 0.413085 -0.0213652 0.910436
28.8788 18.2191 9.34844 0.416056 -0.0291547 0.908872
27.9742 17.9702 9.78261 0.441586 -0.0248202 0.896875
26.4434 17.2242 10.4675 0.402824 -0.0475211 0.914043
25.1715 16.2168 11.0051 0.436601 -0.0407084 0.898731
24.5603 15.4249 11.2655 0.429064 -0.0448884 0.902157
23.8865 14.4388 11.5372 0.423093 -0.027456 0.905489
23.0784 13.2889 11.894 0.416813 -0.0131495 0.908897
22.3234 12.4848 12.2286 0.417476 -0.0132917 0.908591
21.1801 11.8022 12.7473 0.444038 -0.0239525 0.895688
20.2968 11.6061 13.1802 0.447974 -0.0298378 0.893518
19.204 11.6886 13.7148 0.429165 -0.0437674 0.902165
18.0932 12.1984 14.269 0.433811 -0.0504793 0.89956
17.1356 13.0797 14.7918 0.439935 -0.0545845 0.896363
16.3493 14.2172 15.2616 0.466632 -0.0573493 0.88259
15.8312 15.5855 15.628 0.471343 -0.0530135 0.880305
15.5519 16.6519 15.8309 0.47308 -0.0439928 0.879919
15.304 17.6819 16.0256 0.481585 -0.0513986 0.87489
14.979 18.8527 16.3119 0.459217 -0.081314 0.884595
14.5271 19.9181 16.6447 0.460946 -0.0761719 0.884135
13.4469 21.0694 17.311 0.473791 -0.0643797 0.878281
12.5952 21.3678 17.7504 0.447285 -0.0330986 0.893778
11.6488 21.4694 18.2062 0.462019 -0.0740565 0.882255
10.1943 21.7017 19.1076 0.528236 -0.101533 0.843004
9.3451 22.0407 19.6344 0.498629 -0.0713065 0.863877
8.3564 22.9799 20.3683 0.570294 -0.109235 0.813531
7.90863 23.9319 20.7914 0.602031 -0.101516 0.791992
7.65132 25.4011 21.1985 0.584179 -0.115348 0.802999
7.78233 26.7308 21.3189 0.499119 -0.208191 0.840253
8.11273 27.7992 21.4375 0.4997 -0.247498 0.830074
8.62024 28.9423 21.4254 0.525837 -0.210244 0.824185
9.58639 30.2778 21.0971 0.555578 -0.173323 0.813199
10.4066 31.007 20.6891 0.565093 -0.153263 0.810431
11.5735 31.6692 19.99 0.561729 -0.136393 0.815999
12.429 32.0883 19.4673 0.579543 -0.134941 0.803502
13.8045 33.1065 18.6083 0.591881 -0.129153 0.79561
14.5034 33.8949 18.2271 0.58867 -0.102925 0.801238
15.252 34.9672 17.838 0.531741 -0.0593377 0.844502
15.9503 35.9638 17.4828 0.510781 -0.0648867 0.857258
16.4567 36.8692 17.241 0.560627 -0.0677902 0.825137
16.9304 37.9208 17.0138 0.564314 -0.0791749 0.821735
17.3313 38.9341 16.8113 0.580801 -0.0612059 0.811741
17.8799 40.4645 16.5804 0.538633 -0.101865 0.836357
18.0812 41.5185 16.577 0.552138 -0.0749935 0.830111
18.0126 42.9632 16.7319 0.567271 -0.0643232 0.821009
17.311 44.2183 17.3236 0.561823 -0.0698067 0.824277
16.5033 45.1515 17.9552 0.586123 -0.0333323 0.809536
15.6696 45.8711 18.6033 0.591933 -0.0444051 0.804757
14.9305 46.2663 19.1657 0.602 -0.0600813 0.795917
14.191 46.6092 19.7754 0.632732 -0.0725692 0.770575
13.147 47.2487 20.699 0.634042 -0.0573563 0.77114
12.3933 47.7818 21.3636 0.640557 -0.0842749 0.763272
11.6903 48.2217 22.0023 0.640755 -0.0842733 0.763107
10.7946 48.5191 22.7671 0.624949 -0.0670772 0.777734
9.49196 48.6688 23.7562 0.577279 -0.0191589 0.816321
8.65602 48.7396 24.3406 0.566281 -0.0167467 0.824017
7.78035 48.7973 24.8979 0.534167 0.0126829 0.845282
6.9307 48.8155 25.4347 0.509589 0.00754141 0.859888
5.60668 48.8671 26.1913 0.500128 -0.0323954 0.86533
4.40734 48.9239 26.7272 0.361805 -0.0611444 0.930229
3.21984 48.9798 27.1594 0.324392 0.0228535 0.945303
2.27038 48.9827 27.4916 0.332681 0.03233 0.942356
0.971541 48.9767 27.5668 -0.0988767 0.0418815 0.992797
-0.612069 48.9952 27.4121 -0.104793 0.182721 0.977564
-1.70874 48.9503 27.3001 -0.115889 0.178516 0.977044
-2.80257 48.8895 27.0216 -0.301485 0.232947 0.924529
-4.2682 48.8335 26.542 -0.41146 -0.0177349 0.909957
-5.36394 48.8132 26.0231 -0.469824 -0.0607329 0.879195
-6.24842 48.7731 25.4872 -0.524454 -0.054035 0.849577
-7.66124 48.7051 24.4333 -0.652963 -0.0350456 0.756534
-8.47936 48.6549 23.7283 -0.643027 -0.0276813 0.765259
-9.79569 48.6 22.6465 -0.615977 -0.0799536 0.7818
-10.8629 48.563 21.7496 -0.647988 -0.10466 0.754425
-11.6515 48.5153 21.0672 -0.631837 -0.110241 0.766962
-12.5001 48.4596 20.384 -0.621973 -0.121527 0.773551
-13.3372 48.4013 19.7031 -0.624944 -0.117052 0.771816
-14.1502 48.3397 19.0503 -0.599604 -0.0893672 0.795292
-14.9877 48.2356 18.407 -0.597857 -0.0910276 0.796413
-15.8816 48.0298 17.7263 -0.587522 -0.0866917 0.804551
-16.6779 47.5856 17.0879 -0.576214 -0.114658 0.809125
-17.3244 46.8248 16.5271 -0.605067 -0.0831981 0.791815
-17.7355 45.8018 16.1228 -0.543237 -0.0658657 0.836749
-17.8513 44.397 15.9041 -0.542929 -0.0855943 0.835405
-17.7844 42.9459 15.8146 -0.543016 -0.0716967 0.836656
-17.212 41.6019 16.0817 -0.546012 -0.0543419 0.836013
-16.6109 40.6728 16.4273 -0.57046 -0.0344934 0.820601
-15.884 39.5892 16.8796 -0.548014 -0.0700313 0.832838
-14.9003 38.1709 17.3526 -0.56178 -0.106946 0.820344
-14.0068 36.8009 17.8297 -0.55576 -0.0597986 0.829176
-13.3347 35.9592 18.2322 -0.577047 -0.0540403 0.814722
-12.6257 35.2986 18.6801 -0.561793 -0.130139 0.816978
-11.5054 34.5918 19.3263 -0.545991 -0.131313 0.827437
-10.6816 34.1504 19.8067 -0.543544 -0.108549 0.832245
-9.5634 33.4804 20.4411 -0.54681 -0.11315 0.829244
-8.58401 32.8411 21.0643 -0.623251 -0.143966 0.768655
-7.74206 32.2453 21.5788 -0.569618 -0.180644 0.801513
-6.95456 31.5821 21.9997 -0.615558 -0.177517 0.767179
-6.07134 30.5563 22.5295 -0.601153 -0.165115 0.780786
-5.20073 29.54 22.7232 -0.490337 -0.291315 0.820878
-4.588 28.5666 22.8071 -0.507216 -0.181431 0.840263
-4.21736 27.639 22.8894 -0.499827 -0.123931 0.857213
-3.89443 26.4557 22.8714 -0.484846 -0.162774 0.859318
-3.78656 25.2965 22.7137 -0.479291 -0.165638 0.861851
-3.93564 23.944 22.3647 -0.438175 -0.153567 0.884541
-4.21392 23.0089 22.1001 -0.409288 0.0480591 0.908486
-4.72623 22.1053 21.9528 -0.600288 -0.0487588 0.798296
-5.35484 21.1821 21.4289 -0.593512 -0.0628634 0.802139
-6.20777 20.3316 20.7996 -0.511084 -0.107543 0.852381
-6.97273 19.8289 20.3224 -0.474978 -0.0745014 0.876772
-8.31047 19.3102 19.5354 -0.473489 -0.0920972 0.875684
-9.1913 19.1009 18.9517 -0.538181 -0.147087 0.829895
-10.2911 18.9686 18.2364 -0.500586 -0.153796 0.851915
-11.6633 18.7342 17.3945 -0.514872 -0.1326 0.846654
-12.4755 18.1674 16.7962 -0.500583 -0.10169 0.858634
-13.6512 16.6915 16.0825 -0.47046 -0.0254218 0.88205
-14.1556 15.7696 15.7919 -0.470482 -0.036176 0.881559
-15.0252 14.3875 15.2483 -0.45075 -0.0447569 0.891189
-15.69 13.5528 14.8981 -0.432271 -0.0311366 0.901206
-16.6696 12.5013 14.3615 -0.433771 -0.0737253 0.897828
-16.9261 13.2214 14.2998 -0.416203 -0.0535881 0.907566
-15.9133 14.352 14.8254 -0.427749 -0.0395588 0.903032
-15.2655 15.242 15.1745 -0.429187 -0.0415495 0.902259
-14.5252 16.5517 15.6161 -0.466316 -0.0218139 0.884348
-13.9699 17.5083 15.9361 -0.47046 -0.0254218 0.88205
-13.3806 18.3081 16.3195 -0.481163 -0.0581565 0.874504
-12.3282 19.2875 17.0445 -0.557253 -0.0699805 0.827197
-11.4655 19.635 17.6269 -0.54082 0.00514101 0.840681
-10.566 19.7127 18.2081 -0.498311 -0.148749 0.854126
-9.29997 19.8273 19.0077 -0.534071 -0.119003 0.836737
-8.41578 20.017 19.5694 -0.489337 -0.106992 0.86495
-7.2042 20.4972 20.2683 -0.469645 -0.122387 0.874233
-6.15598 21.3138 20.9693 -0.476864 -0.133756 0.868739
-5.45985 22.1108 21.4289 -0.450055 -0.104338 0.886873
-4.98113 22.9534 21.7628 -0.398365 -0.00641585 0.908877
-4.63508 23.8754 22.0438 -0.401769 -0.138232 0.905248
-4.43577 24.8564 22.2774 -0.435203 -0.0966388 0.894833
-4.44679 25.9631 22.4664 -0.492665 -0.155373 0.856222
-4.66419 26.9574 22.5303 -0.491172 -0.134036 0.860579
-4.97602 27.9098 22.4862 -0.500395 -0.123224 0.856983
-5.88068 29.4724 22.3038 -0.486897 -0.260927 0.833571
-6.57587 30.2661 22.0736 -0.620428 -0.12001 0.775022
-7.32918 31.0788 21.5885 -0.603239 -0.108351 0.789692
-8.16281 31.7401 21.1513 -0.569516 -0.20245 0.796657
-8.96671 32.3253 20.6578 -0.5715 -0.134759 0.806981
-9.79404 32.8522 20.2223 -0.534044 -0.106147 0.838527
-10.6869 33.3854 19.7034 -0.543544 -0.108549 0.832245
-11.8865 34.0095 18.9824 -0.550804 -0.123474 0.825397
-12.7345 34.5281 18.4797 -0.569294 -0.142285 0.809728
-13.5256 35.1881 18.0452 -0.561743 -0.109764 0.819112
-14.6828 36.6323 17.3626 -0.553152 -0.0740752 0.829511
-15.2721 37.5813 17.0505 -0.532883 -0.070315 0.843117
-16.014 38.6682 16.7017 -0.525174 -0.0895642 0.846268
-16.6977 39.629 16.3137 -0.572052 -0.0501012 0.818686
-17.2679 40.4793 15.9719 -0.55635 -0.0588469 0.828766
-17.9985 41.5731 15.5532 -0.55744 -0.0690181 0.827271
-18.4627 42.9474 15.3701 -0.549748 -0.0744347 0.832008
-18.5156 44.0211 15.4343 -0.554753 -0.0959402 0.826227
-18.4477 45.7268 15.6541 -0.54021 -0.0856339 0.837162
-18.1625 46.7715 15.8978 -0.545137 -0.0458144 0.837094
-17.5663 47.7038 16.4353 -0.605314 -0.0839948 0.791543
-16.4449 48.6771 17.3848 -0.605824 -0.0727245 0.79181
-15.6444 48.9092 17.9941 -0.59188 -0.0878693 0.8012
-14.7006 49.0198 18.7117 -0.597896 -0.0898485 0.796519
-13.9018 49.083 19.3421 -0.630107 -0.115073 0.767934
-13.1063 49.1317 20.0024 -0.626288 -0.11899 0.770433
-12.3007 49.1896 20.6526 -0.616242 -0.114973 0.779119
-11.5217 49.2478 21.2802 -0.633003 -0.111146 0.7659
-10.4258 49.2963 22.2376 -0.655154 -0.119057 0.746055
-9.24295 49.3474 23.1871 -0.596239 -0.12821 0.792502
-8.30872 49.4046 23.9055 -0.648704 -0.0607093 0.758262
-7.2764 49.4666 24.8095 -0.656034 -0.0382145 0.753761
-6.19477 49.5138 25.5571 -0.528398 -0.0414235 0.847975
-5.09505 49.5654 26.171 -0.361549 -0.0287979 0.9299
-3.73706 49.5757 26.7479 -0.390233 0.0255144 0.920361
-2.66237 49.6247 27.0425 -0.245755 0.00222018 0.969329
-1.69528 49.6752 27.3 -0.166746 -0.0529654 0.979134
-0.675365 49.7251 27.3858 -0.0828617 -0.103675 0.991153
0.912109 49.7209 27.5136 -0.11444 -0.0209344 0.989414
2.19954 49.6958 27.5038 0.208787 0.0629999 0.966058
3.27791 49.6966 27.141 0.316109 -0.000513248 0.948722
4.23167 49.656 26.825 0.313654 -0.00750014 0.949508
5.85269 49.5746 26.0711 0.500742 -0.0261247 0.8652
6.75184 49.5475 25.5568 0.507529 -0.0705076 0.858475
8.074 49.5038 24.7454 0.5225 -0.0542294 0.850912
8.99182 49.4298 24.1605 0.553365 -0.0593741 0.830547
10.0452 49.3432 23.4153 0.592834 -0.0618901 0.802616
11.1776 49.2062 22.5098 0.630405 -0.0566711 0.774194
12.2375 48.7607 21.5936 0.646431 -0.0641096 0.760273
12.9024 48.2835 20.9868 0.642795 -0.0653168 0.763223
14.0891 47.4597 19.9388 0.626957 -0.0685824 0.776004
15.4012 46.857 18.8543 0.602 -0.0600813 0.795917
16.2887 46.3277 18.1694 0.594457 -0.0429946 0.802977
17.147 45.4955 17.504 0.581736 -0.0340367 0.81265
17.7622 44.7868 17.037 0.576854 -0.0416171 0.815782
18.5173 43.6061 16.4349 0.575915 -0.0566181 0.815417
18.7578 42.3858 16.1799 0.555679 -0.0559277 0.829514
18.6528 40.8521 16.1602 0.531187 -0.0653379 0.843897
18.2983 39.6877 16.2429 0.50821 -0.0806387 0.857343
17.9206 38.6958 16.399 0.518289 -0.0532421 0.853547
17.475 37.6272 16.6163 0.568958 -0.0670684 0.819471
17.059 36.6624 16.8273 0.554849 -0.0549898 0.830125
16.561 35.6861 17.0888 0.551602 -0.0587923 0.832033
15.9068 34.6984 17.4126 0.512789 -0.0664167 0.855915
15.1828 33.7109 17.7548 0.527098 -0.0868524 0.845051
14.3168 32.6527 18.2011 0.533633 -0.104988 0.83902
13.2734 31.7607 18.7832 0.591454 -0.1301 0.795771
12.3105 31.2493 19.4043 0.56521 -0.142669 0.812517
11.2258 30.7314 20.0674 0.561592 -0.163387 0.81085
10.0971 29.9446 20.6756 0.557133 -0.173895 0.812012
9.40704 29.0938 20.9547 0.531663 -0.206943 0.821285
8.9065 28.2107 21.0541 0.527958 -0.20769 0.823477
8.48719 27.0682 20.9929 0.49005 -0.250479 0.834932
8.28243 26.0554 20.8768 0.533877 -0.177182 0.826777
8.31356 24.821 20.5949 0.603364 -0.116455 0.788733
8.56805 23.8948 20.3095 0.580264 -0.0829325 0.810195
9.10023 23.0242 19.8626 0.489962 -0.113198 0.864361
9.93438 22.5182 19.3337 0.498575 -0.0713129 0.863908
10.7731 22.2749 18.8132 0.510865 -0.106411 0.852799
12.268 22.1698 17.9438 0.460947 -0.0773963 0.882492
13.1971 22.0368 17.4801 0.431085 -0.0930739 0.897498
14.5048 21.2064 16.7579 0.460936 -0.0694288 0.884713
15.3978 19.8752 16.1859 0.46177 -0.0709153 0.884161
15.8142 18.4866 15.8376 0.465067 -0.0914838 0.880536
16.0697 17.3744 15.591 0.469778 -0.0700218 0.879794
16.2936 16.3791 15.4212 0.435875 -0.0518674 0.89851
16.6209 15.2424 15.1923 0.445447 -0.0638108 0.893031
17.2291 14.0362 14.8039 0.446072 -0.0618316 0.892858
17.9514 13.1543 14.3955 0.43926 -0.0517989 0.896865
18.746 12.6011 13.9741 0.436442 -0.0445089 0.898592
19.8403 12.2821 13.4342 0.433421 -0.036677 0.900445
20.7832 12.3496 12.9638 0.451991 -0.0361992 0.891288
22.2995 13.37 12.2528 0.440807 -0.0428784 0.896577
22.9998 14.2867 11.9524 0.439964 -0.0454605 0.89686
23.6694 15.3377 11.6855 0.435149 -0.0498168 0.898979
24.2941 16.2624 11.4349 0.433498 -0.0439686 0.900066
25.0449 17.1147 11.1064 0.438154 -0.0392046 0.898045
26.0958 17.8753 10.655 0.406042 -0.0375773 0.913002
27.0744 18.3954 10.2324 0.422724 -0.0230599 0.905816
28.4138 18.8939 9.59173 0.439351 -0.0220758 0.898037
29.4498 19.0621 9.11237 0.418137 -0.0221318 0.908114
30.677 18.9056 8.54606 0.41431 -0.0236274 0.909828
31.5593 18.4933 8.13286 0.400909 -0.0177128 0.915812
32.2954 17.7709 7.79499 0.384821 -0.0371177 0.922209
32.769 16.5802 7.55507 0.393221 -0.0252356 0.918883
32.8396 15.4782 7.50724 0.384249 -0.0154089 0.923101
32.6634 14.3442 7.5683 0.412485 -0.0248993 0.91046
32.2939 13.1035 7.68578 0.421063 -0.0399293 0.906152
31.9758 11.9068 7.81507 0.443578 -0.0222762 0.895858
31.7879 10.7904 7.86574 0.446553 -0.0310179 0.894206
31.7551 9.73146 7.81945 0.433016 -0.0558727 0.89965
31.8837 8.72168 7.73503 0.409262 -0.0184144 0.912229
32.2369 7.65913 7.57193 0.413182 0.00268717 0.910641
32.7342 6.74396 7.37948 0.39065 0.0147037 0.920396
33.6103 5.59096 7.01851 0.382582 0.00900518 0.923862
34.5308 4.52246 6.65526 0.377783 0.00138584 0.925845
35.112 3.59707 6.41174 0.376044 -0.00718018 0.926574
35.3294 1.79185 6.31125 0.378544 -0.00539396 0.925566
35.0503 0.756281 6.41736 0.379934 -0.00602995 0.924992
34.5783 -0.234412 6.59833 0.373833 -0.00804406 0.92746
34.0619 -1.16813 6.80362 0.374793 -0.00213646 0.927105
33.6926 -2.11209 6.94491 0.374642 -0.00859752 0.927121
33.3011 -3.31462 7.12294 0.384435 0.018252 0.922967
33.062 -4.28564 7.24454 0.387832 0.0219739 0.921465
32.883 -5.27886 7.33759 0.391743 0.0145684 0.919959
32.7583 -6.27768 7.4064 0.385049 0.00626014 0.922809
32.636 -8.06568 7.43604 0.374547 -0.00483405 0.927185
32.7044 -9.7387 7.41735 0.38158 0.00598183 0.924316
32.9919 -11.264 7.32253 0.381558 0.0132733 0.924246
33.236 -12.2347 7.22697 0.371437 -0.00438238 0.928447
33.6762 -13.478 7.05671 0.376837 0.0132099 0.926133
34.1018 -14.4601 6.88829 0.384528 0.00864197 0.923073
34.5157 -15.3853 6.728 0.388224 0.0101106 0.921497
34.876 -16.332 6.58194 0.391678 0.00719404 0.920074
35.1494 -17.3879 6.46992 0.386463 0.00713301 0.922255
35.2424 -18.4383 6.44451 0.378921 0.00108485 0.925371
34.9945 -19.7225 6.53307 0.375296 -0.00954335 0.926855
34.446 -20.6653 6.73964 0.373248 -0.0193181 0.92753
32.8574 -21.5565 7.37308 0.382521 -0.013188 0.923853
31.755 -21.6237 7.8293 0.38315 -0.0132942 0.923591
30.3305 -21.3584 8.45739 0.393838 0.0323382 0.918611
29.2047 -20.9593 8.94095 0.414065 0.0461592 0.909052
28.0466 -20.2747 9.44397 0.432447 0.0254081 0.900999
27.3228 -19.5994 9.79364 0.436529 0.00283965 0.899684
26.6735 -18.7923 10.103 0.429576 0.00444108 0.90302
26.0172 -17.7833 10.4096 0.42951 0.00496383 0.903048
25.5597 -16.8369 10.5889 0.409836 0.0274223 0.911747
25.0187 -15.4293 10.8007 0.420995 0.0112016 0.906993
24.5655 -14.3476 10.9946 0.404123 0.00794129 0.914661
23.7378 -12.9253 11.3564 0.406244 0.00305988 0.913759
22.6653 -12.0287 11.8104 0.404158 0.0235607 0.914385
21.6558 -11.6471 12.2589 0.415017 0.0174577 0.909646
20.1766 -11.7868 12.9171 0.396167 0.0105626 0.918118
19.1199 -12.3574 13.399 0.428701 0.0354385 0.902751
18.0985 -13.1938 13.9294 0.440177 0.0116322 0.897465
17.2654 -14.3587 14.3319 0.417683 0.0247105 0.908106
16.6847 -15.7854 14.6762 0.422535 0.0330661 0.905518
16.3477 -16.8206 14.8878 0.455554 0.0459419 0.889022
16.0164 -17.8173 15.1091 0.456702 0.041656 0.888633
15.3241 -19.2083 15.5463 0.469911 0.0335501 0.881994
14.5434 -20.189 15.9924 0.480289 0.0162784 0.876958
13.7723 -20.6629 16.4215 0.501738 0.0331834 0.863804
12.7626 -20.7694 17.0368 0.484216 0.0736133 0.871845
11.8025 -20.5064 17.5457 0.478473 0.0809816 0.874358
10.7114 -19.9081 18.0826 0.473239 0.092858 0.876026
9.77727 -19.3679 18.5284 0.472699 0.0948031 0.87611
8.38775 -18.7562 19.2936 0.452232 -0.0102455 0.88745
7.4603 -18.6453 19.6686 0.423267 0.0563673 0.901935
6.40758 -18.6881 20.2532 0.511539 0.0919217 0.854328
5.57982 -18.9651 20.7793 0.504002 0.0824272 0.859649
4.54299 -19.684 21.4124 0.467584 0.0681916 0.881297
3.87003 -20.4758 21.743 0.34525 -0.0287809 0.938067
3.37061 -21.4053 21.9031 0.356091 0.00130431 0.93445
2.86341 -22.8547 22.0987 0.33222 0.0286642 0.942029
2.65302 -23.9353 22.1853 0.196703 0.0192138 0.980273
2.74131 -25.4562 22.2702 0.198352 0.14145 0.969769
3.15501 -26.8712 22.4143 0.170949 0.162006 0.971865
3.74512 -28.0722 22.4182 0.268605 0.158829 0.946696
4.41139 -29.3266 22.3122 0.398816 0.175957 0.897306
5.00601 -30.6426 22.4204 0.386918 0.253241 0.886655
5.49651 -31.6886 22.4762 0.391577 0.220664 0.893291
6.18854 -32.8319 22.36 0.474375 0.19097 0.859339
6.84531 -33.6465 22.1703 0.50917 0.168197 0.843296
7.52241 -34.3209 21.8543 0.545022 0.134992 0.827442
9.04256 -35.1869 20.9622 0.557526 0.136799 0.818782
9.97489 -35.2758 20.3122 0.581837 0.108668 0.805975
11.3335 -35.2149 19.358 0.559391 0.140147 0.816971
12.4721 -34.9538 18.5363 0.535752 0.154708 0.829608
13.5255 -34.521 17.8726 0.46714 0.0710139 0.881327
14.4528 -34.0665 17.332 0.498465 0.081701 0.863052
15.456 -33.6388 16.7125 0.497726 0.0818112 0.863467
16.3903 -33.3578 16.1339 0.511445 0.0611113 0.85714
17.3171 -33.314 15.5778 0.506304 0.0572497 0.86042
18.564 -33.5058 14.8674 0.499679 0.0553097 0.864443
19.505 -33.8155 14.3434 0.478807 0.0507412 0.876117
20.5348 -34.3766 13.8439 0.455072 0.0484698 0.889134
21.5879 -35.2631 13.338 0.452985 0.0428612 0.890396
22.4646 -36.1377 12.8859 0.5052 0.0422447 0.861964
23.1784 -37.0796 12.5075 0.494302 0.0314992 0.868574
23.8285 -38.1131 12.1939 0.465435 0.0264929 0.884685
24.3494 -39.4346 11.9752 0.450396 0.0442109 0.891733
24.4593 -40.7456 11.9914 0.451822 0.0505451 0.890675
24.2286 -42.1304 12.1831 0.457815 0.0492321 0.887683
23.841 -43.164 12.4408 0.457391 0.0497752 0.887871
22.8595 -44.5684 13.0545 0.475981 0.0509922 0.877976
21.8746 -45.6295 13.6146 0.48202 0.0321317 0.875342
20.9275 -46.3343 14.2044 0.508634 0.0558571 0.859169
19.9493 -46.876 14.8126 0.496804 0.0503352 0.866402
18.788 -47.3324 15.505 0.505561 0.057064 0.86081
17.8716 -47.8299 16.0883 0.517423 0.0417132 0.854712
17.1369 -48.379 16.5841 0.56188 0.0603965 0.825009
16.4248 -48.8514 17.0986 0.553824 0.0553021 0.830786
14.9836 -49.1064 18.0615 0.546209 0.0499532 0.836157
13.9558 -49.112 18.7419 0.549865 0.0863794 0.830775
12.8251 -49.1196 19.571 0.615352 0.0566674 0.786047
11.9629 -49.1479 20.2302 0.565823 0.0466702 0.821719
10.3579 -49.2047 21.2286 0.524511 0.0514712 0.849837
9.50628 -49.2387 21.796 0.553349 0.0501933 0.831435
8.5944 -49.2862 22.4066 0.561079 0.0462672 0.826416
7.57857 -49.3676 23.1143 0.56927 0.0441522 0.820964
6.60492 -49.419 23.7935 0.559201 0.0535888 0.827148
5.67889 -49.4567 24.4189 0.56512 0.0842054 0.820699
4.50216 -49.5099 25.221 0.550314 0.0910879 0.829974
2.8648 -49.5724 25.8812 0.177627 0.0335926 0.983479
1.82364 -49.5779 26.065 0.152434 0.104879 0.982293
0.528509 -49.5736 26.2254 0.118596 0.084724 0.989301
-0.642129 -49.5389 26.1333 -0.265606 -0.0155661 0.963865
-1.82625 -49.5068 25.7747 -0.296707 -0.0123035 0.954889
-2.94493 -49.5206 25.4139 -0.348505 0.0114256 0.935842
-3.94788 -49.5068 24.9853 -0.3948 0.0379633 0.917977
-4.91344 -49.4693 24.5107 -0.471296 0.0328564 0.880491
-5.82407 -49.417 23.9792 -0.503389 0.0540527 0.862362
-6.68864 -49.369 23.413 -0.556585 0.0339942 0.830018
-7.55024 -49.3349 22.8208 -0.565782 0.0397906 0.823594
-8.42037 -49.3147 22.2092 -0.59889 0.0503458 0.798505
-9.25477 -49.3011 21.5411 -0.622434 0.0659821 0.779886
-10.0787 -49.2764 20.8648 -0.611435 0.0349361 0.789685
-11.0603 -49.2354 20.1531 -0.584593 0.0154805 0.811175
-12.3158 -49.0617 19.2635 -0.571889 0.0145365 0.820202
-13.1505 -48.9493 18.6815 -0.586469 0.0237754 0.80929
-13.9341 -48.4343 18.0699 -0.595567 0.0388762 0.802363
-14.514 -47.6989 17.6176 -0.571242 0.0328887 0.820107
-15.2382 -46.6771 17.0672 -0.568625 0.0343919 0.821877
-16.0325 -45.7242 16.4736 -0.56909 0.0430923 0.821143
-16.7921 -45.0264 15.9234 -0.526252 0.0609883 0.848138
-17.6146 -44.0574 15.3295 -0.536332 0.0719008 0.840938
-18.148 -43.1324 14.9243 -0.530485 0.0413732 0.846557
-18.6403 -41.6008 14.5747 -0.517824 0.0356572 0.854666
-18.4494 -39.7828 14.6046 -0.507591 0.0363231 0.860832
-18.0261 -38.8502 14.7866 -0.503197 0.0611695 0.862004
-17.0496 -37.6234 15.3145 -0.52608 0.0167878 0.850269
-16.3444 -36.9259 15.7373 -0.544148 0.0147249 0.838584
-15.1458 -36.0883 16.4849 -0.551341 0.0629087 0.831905
-14.1302 -35.6293 17.133 -0.55882 0.062467 0.826933
-12.5916 -35.2593 18.0392 -0.490529 0.102542 0.865371
-11.5447 -35.0671 18.608 -0.529457 0.110402 0.839879
-10.7193 -34.7131 19.1467 -0.576741 0.096181 0.811243
-9.77674 -34.0291 19.7373 -0.524927 0.0804765 0.844825
-8.92516 -33.1807 20.1083 -0.48777 0.132091 0.862911
-8.25377 -32.1387 20.327 -0.512566 0.121005 0.849447
-7.74071 -31.0415 20.4841 -0.508914 0.175068 0.841418
-7.19553 -29.9175 20.5652 -0.450002 0.131183 0.883333
-6.53581 -28.8273 20.71 -0.439699 0.156387 0.884417
-5.78492 -27.608 20.908 -0.444852 0.0502083 0.894194
-5.33751 -26.6071 21.0759 -0.432808 0.0547256 0.899696
-5.03185 -25.6102 21.1452 -0.422532 0.0748489 0.903252
-4.89682 -24.254 21.0979 -0.397395 0.0920118 0.912424
-5.04458 -23.2177 20.8964 -0.46074 0.116273 0.879876
-5.7411 -21.7962 20.3809 -0.462552 0.0696991 0.883846
-6.41809 -21.0582 20.0111 -0.42523 0.0861754 0.900693
-7.19403 -20.4772 19.5646 -0.435427 0.106189 0.893939
-8.06098 -20.0109 18.9953 -0.535299 0.096506 0.839112
-9.47357 -19.857 18.2101 -0.428559 0.0434828 0.90196
-10.3836 -19.9983 17.7678 -0.462576 0.0133444 0.885998
-11.7015 -20.2844 17.0355 -0.500599 0.0379405 0.864468
-12.6709 -20.3754 16.5272 -0.452054 0.0649481 0.889623
-13.8307 -20.0746 15.9086 -0.464127 0.0689922 0.883073
-14.773 -19.3684 15.3542 -0.467291 0.0716512 0.881193
-15.4388 -18.3775 14.9453 -0.458187 0.0454037 0.887695
-15.9706 -17.0921 14.5857 -0.414716 0.0520575 0.908444
-16.4338 -15.8605 14.3116 -0.409863 0.0462907 0.910971
-16.8849 -14.7306 14.0521 -0.410436 0.0454194 0.910757
-17.323 -13.8251 13.7984 -0.42726 0.0263669 0.903511
-17.9081 -12.9735 13.5144 -0.413361 0.0234316 0.910266
-18.9119 -11.7875 13.0062 -0.43668 0.0289716 0.8991
-19.7113 -11.1346 12.6016 -0.436128 0.0158681 0.899732
-21.0639 -10.7834 11.9721 -0.41227 0.0127778 0.910972
-22.0432 -10.8133 11.5382 -0.411203 0.026735 0.911128
-23.3891 -11.242 10.9306 -0.424746 0.0225168 0.905003
-24.7823 -12.071 10.2644 -0.436003 0.0151724 0.899749
-25.7013 -12.9407 9.83572 -0.416001 -0.0105089 0.909303
-26.4566 -13.6655 9.48654 -0.418544 0.00243674 0.908192
-27.2535 -14.3214 9.12565 -0.405261 0.0124151 0.914117
-28.394 -15.1474 8.6317 -0.405419 0.00449593 0.914082
-29.4773 -15.7416 8.16232 -0.391828 -0.0105611 0.919977
-30.3911 -16.1011 7.77766 -0.391149 -0.00205553 0.920289
-31.3821 -16.3286 7.35185 -0.39011 0.0109567 0.920692
-32.5956 -16.362 6.84863 -0.382392 0.00957744 0.923944
-33.6988 -16.1555 6.38674 -0.385699 0.0060066 0.922605
-34.5272 -15.7115 6.0258 -0.395357 0.0128662 0.918437
-35.2689 -15.0448 5.69733 -0.392053 0.0152897 0.919805
-35.8181 -14.0928 5.46341 -0.370849 0.0126126 0.928607
-35.9104 -12.3999 5.41847 -0.36786 -0.00378728 0.929862
-35.5543 -11.2891 5.54913 -0.353971 0.0161267 0.935044
-35.0305 -10.3435 5.71829 -0.353998 0.0288788 0.9348
-34.4781 -9.5129 5.93218 -0.38006 0.0124132 0.924878
-33.8396 -8.54688 6.18602 -0.423385 -0.00617517 0.905929
-33.3673 -7.69329 6.4129 -0.423751 -0.00928816 0.905727
-32.7167 -6.01892 6.71602 -0.396237 0.00806025 0.918096
-32.4491 -4.4442 6.80785 -0.394691 0.0131135 0.918719
-32.4092 -3.42438 6.81025 -0.402538 0.0127055 0.915315
-32.4874 -1.95688 6.75988 -0.402091 0.006628 0.915575
-32.5939 -0.812889 6.73585 -0.370504 -0.028719 0.92838
-32.6335 0.936613 6.77945 -0.373673 -0.0287117 0.92711
-32.6187 2.22497 6.82195 -0.365522 -0.0211801 0.930553
-32.6333 3.28297 6.81764 -0.373661 0.00740508 0.927531
-32.7074 4.33719 6.77337 -0.380491 0.0168839 0.924626
-33.0224 5.80543 6.61161 -0.393507 0.0131888 0.919113
-33.3995 6.91391 6.43889 -0.404962 0.00451788 0.914322
-33.8383 7.81429 6.24468 -0.396125 -0.0134996 0.918066
-34.4332 8.68111 6.01318 -0.356306 0.0074678 0.934331
-35.0895 9.52288 5.75328 -0.364366 -0.010453 0.931194
-35.8479 10.7873 5.48498 -0.354793 -0.023499 0.934648
-36.0708 11.7768 5.41688 -0.360381 0.000178145 0.93271
-35.9799 12.9224 5.44254 -0.374891 -0.00958096 0.926848
-35.6607 13.9581 5.60293 -0.375553 -0.0253213 0.926448
-34.8939 14.822 5.93187 -0.371572 -0.0205071 0.928178
-34.065 15.2725 6.27537 -0.374277 -0.0217872 0.927061
-33.0225 15.5939 6.70682 -0.396054 -0.0257352 0.917658
-31.6501 15.6294 7.33217 -0.419091 -0.0295069 0.907446
-30.4894 15.4085 7.86858 -0.423702 -0.0248876 0.905459
-29.582 15.0883 8.29823 -0.425819 -0.00834785 0.904623
-28.7113 14.7552 8.69115 -0.4093 -0.00422716 0.912384
-27.7685 14.2977 9.10071 -0.384267 -0.00593763 0.923203
-26.9126 13.7425 9.45439 -0.387781 -0.0036676 0.92174
-25.7198 12.6779 9.98062 -0.413544 -0.0010685 0.910483
-24.9303 12.0659 10.3327 -0.414547 -0.00694858 0.909989
-23.9981 11.549 10.7526 -0.412348 -0.0157562 0.91089
-23.116 11.2016 11.1555 -0.441178 -0.01186 0.89733
-21.6064 10.8753 11.8726 -0.438024 -0.0533898 0.89715
-20.4693 11.0248 12.466 -0.450405 -0.0398872 0.891695
-19.3031 11.4392 13.0543 -0.445501 -0.0225782 0.894995
-18.353 11.9757 13.5395 -0.453057 -0.0470135 0.889865
-17.5746 12.5849 13.9503 -0.421438 -0.0675537 0.904337
-17.5272 12.6278 13.9755 -0.421329 -0.0674524 0.904396
-18.2413 12.923 13.6648 -0.421438 -0.0675537 0.904337
-17.5461 13.5611 14.0347 -0.4114 -0.0392693 0.910609
-16.8025 14.3793 14.4055 -0.4195 -0.0388127 0.90688
-16.0341 15.3396 14.8133 -0.428877 -0.0420016 0.902386
-15.4758 16.2461 15.1177 -0.436031 -0.0315561 0.899377
-14.8095 17.4787 15.5041 -0.453169 -0.03825 0.890603
-14.2236 18.3738 15.8322 -0.478832 -0.0357353 0.876577
-13.6039 19.1743 16.2369 -0.511003 -0.0587149 0.857571
-12.8989 19.8543 16.7039 -0.530691 -0.0563463 0.845372
-11.5157 20.401 17.5952 -0.518813 0.00317788 0.85488
-10.6203 20.4658 18.1952 -0.565058 0.00818558 0.82501
-9.55802 20.5373 18.9328 -0.544246 -0.0639507 0.835349
-8.36405 20.7747 19.6925 -0.490097 -0.107195 0.864515
-7.00628 21.4667 20.5245 -0.476713 -0.133187 0.86891
-6.02099 22.5152 21.1927 -0.449758 -0.100814 0.887438
-5.50049 23.4263 21.5769 -0.44167 -0.114905 0.889711
-5.18447 24.4095 21.8563 -0.431733 -0.11952 0.894048
-5.06331 25.4612 22.0198 -0.464615 -0.11678 0.876131
-5.3581 27.0907 22.1404 -0.506067 -0.138635 0.851176
-5.79542 28.2378 22.0537 -0.486897 -0.13795 0.862225
-6.77385 29.5801 21.8123 -0.553937 -0.187841 0.804967
-7.76194 30.6095 21.2148 -0.571495 -0.117626 0.811959
-8.806 31.4206 20.6217 -0.533121 -0.121273 0.836401
-9.57379 31.9224 20.2224 -0.522026 -0.125903 0.843583
-10.6401 32.5724 19.6408 -0.5552 -0.0913276 0.826565
-11.7779 33.1661 18.9338 -0.561033 -0.112866 0.820026
-12.6649 33.6319 18.3715 -0.574101 -0.128611 0.80849
-13.4056 34.2069 17.9514 -0.55975 -0.144161 0.815938
-14.1643 34.89 17.5653 -0.550384 -0.145703 0.8221
-14.7881 35.5916 17.1993 -0.556583 -0.0776176 0.82703
-15.6563 37.0037 16.7595 -0.532789 -0.0701919 0.843201
-16.541 38.3056 16.3352 -0.525587 -0.0843353 0.846529
-17.2789 39.34 15.8903 -0.571387 -0.0500919 0.81915
-17.938 40.3324 15.4991 -0.565874 -0.059 0.822369
-18.5388 41.1836 15.161 -0.550086 -0.0707033 0.832098
-19.0453 42.5851 14.9527 -0.561407 -0.0662638 0.824724
-19.1637 43.6627 14.9461 -0.572856 -0.0578968 0.817609
-19.1395 44.7408 15.0918 -0.567484 -0.105198 0.816636
-19.0423 46.2386 15.2953 -0.553352 -0.0418587 0.831835
-18.7287 47.1523 15.5499 -0.553129 -0.0419993 0.831974
-17.8442 48.4481 16.2748 -0.605695 -0.0485351 0.794214
-16.997 49.2749 16.9863 -0.624524 -0.0582356 0.778831
-16.0517 49.6195 17.7719 -0.606708 -0.0718298 0.791216
-15.2442 49.6983 18.3828 -0.596843 -0.0946602 0.796754
-14.4181 49.7728 19.0087 -0.61245 -0.080376 0.785933
-13.1611 49.8395 20.0463 -0.643922 -0.0797311 0.760709
-12.3897 49.8935 20.6862 -0.61613 -0.115072 0.779193
-11.5522 49.9611 21.3626 -0.622228 -0.117211 0.773996
-10.7 50.0003 22.1105 -0.655323 -0.120017 0.745753
-9.4313 50.0862 23.1629 -0.589027 -0.104822 0.800944
-8.43649 50.1418 23.8771 -0.608474 -0.0858267 0.787895
-7.11104 50.2214 24.9897 -0.646754 -0.0559767 0.760322
-6.21809 50.2531 25.5895 -0.543257 -0.0632679 0.837176
-5.23759 50.3124 26.1854 -0.330379 -0.076819 0.940703
-3.90906 50.3199 26.6532 -0.36165 -0.0226007 0.930246
-2.39852 50.3587 27.1216 -0.260418 -0.018446 0.96532
-1.36545 50.4138 27.4006 -0.171301 -0.0623741 0.978191
-0.318149 50.4489 27.4904 -0.078009 -0.103092 0.991608
1.11768 50.4281 27.6024 0.0478675 -0.0647873 0.987771
2.75922 50.4426 27.3179 0.266372 0.0383913 0.960765
3.87855 50.4027 26.9475 0.31731 0.00764458 0.948167
4.88177 50.3488 26.6076 0.356049 0.0319634 0.933105
6.50882 50.2774 25.7592 0.487558 -0.0749987 0.869855
7.58157 50.2572 25.0952 0.524593 -0.0593661 0.849264
8.54211 50.1868 24.4897 0.540452 -0.0442443 0.84021
9.40095 50.1092 23.9315 0.558268 -0.0537577 0.827627
10.5541 50.0285 23.0649 0.611905 -0.0444596 0.789676
11.5514 49.8945 22.2531 0.635449 -0.0535547 0.770283
12.7378 49.3036 21.2127 0.642542 -0.0655673 0.763412
13.9174 48.3918 20.1606 0.631502 -0.0670192 0.772472
14.6361 47.9428 19.5473 0.617968 -0.0649574 0.783515
15.8545 47.4821 18.5397 0.612014 -0.0443197 0.789217
16.9012 46.7633 17.7333 0.593946 -0.030232 0.803919
17.5262 46.1108 17.2619 0.579883 -0.0292027 0.814149
18.2 45.346 16.7514 0.580743 -0.0365124 0.813261
18.8618 44.5105 16.2433 0.566004 -0.0466609 0.823079
19.3404 43.4831 15.8626 0.555967 -0.0474932 0.829813
19.396 41.6314 15.7013 0.554393 -0.0470119 0.830873
19.1651 40.2455 15.7913 0.529369 -0.0664466 0.844899
18.6872 38.9072 15.9534 0.50448 -0.0667768 0.860838
18.2929 37.9027 16.1217 0.520324 -0.0644716 0.85153
17.8479 36.8793 16.3167 0.53596 -0.0570974 0.842094
17.2812 35.6629 16.6097 0.550253 -0.0593589 0.832884
16.7896 34.754 16.8693 0.552953 -0.0682905 0.830399
15.8057 33.4369 17.3592 0.507907 -0.0810414 0.85759
14.9375 32.3232 17.7729 0.519986 -0.0941896 0.848824
14.2072 31.5711 18.1249 0.521879 -0.109751 0.845929
13.4534 31.0331 18.5598 0.55386 -0.0936865 0.827321
12.6145 30.6081 19.0801 0.562138 -0.162951 0.810573
11.5011 30.127 19.7398 0.558235 -0.18389 0.809048
10.4767 29.4719 20.3107 0.565556 -0.178765 0.805101
9.74375 28.5697 20.6045 0.531562 -0.205419 0.821731
9.23811 27.464 20.6557 0.530582 -0.207158 0.821926
8.91842 26.0481 20.4673 0.510048 -0.184654 0.839672
8.9435 24.7688 20.1851 0.491938 -0.146651 0.85779
9.33028 23.7697 19.8292 0.488631 -0.112632 0.86519
10.142 23.1525 19.2882 0.489414 -0.115302 0.864395
11.3417 22.9381 18.5576 0.501732 -0.082479 0.861082
12.7718 22.8815 17.7747 0.443973 -0.105012 0.889865
13.6849 22.7193 17.3164 0.446993 -0.0853323 0.890278
14.5892 22.1866 16.7975 0.458904 -0.0788352 0.884981
15.323 21.4095 16.3477 0.459986 -0.0741021 0.884818
15.9403 20.4977 15.9532 0.451587 -0.0753118 0.889043
16.2701 19.4749 15.699 0.451629 -0.0756966 0.888989
16.5996 18.1237 15.3944 0.451323 -0.0895879 0.887851
16.8037 17.1158 15.2157 0.43426 -0.0528644 0.899231
17.0605 15.9902 15.0251 0.437131 -0.0523505 0.897872
17.4123 14.9846 14.7794 0.44311 -0.0658517 0.894045
18.3437 13.708 14.2354 0.439578 -0.0517508 0.896712
19.1914 13.1166 13.7853 0.439914 -0.0517728 0.896546
20.7214 13.0218 13.0224 0.449931 -0.0421463 0.89205
21.6551 13.6248 12.5817 0.440807 -0.0428784 0.896577
22.3174 14.4579 12.2958 0.439964 -0.0454605 0.89686
22.8377 15.2957 12.086 0.440499 -0.048472 0.896443
23.4458 16.2526 11.8444 0.435006 -0.0498516 0.899047
24.0242 17.0783 11.6147 0.441957 -0.0515264 0.895515
25.0089 18.0342 11.1709 0.449402 -0.0461481 0.892134
25.9492 18.6571 10.7426 0.421366 -0.0380571 0.905883
26.9413 19.1587 10.3134 0.422396 -0.0221025 0.905992
27.9212 19.5732 9.84679 0.435929 -0.0235058 0.899674
29.3576 19.8138 9.17313 0.419573 -0.0239036 0.907404
30.4291 19.7418 8.67962 0.413743 -0.0228088 0.910108
31.7915 19.2303 8.04748 0.395754 -0.0258144 0.917782
32.7048 18.4977 7.65535 0.375957 -0.0305231 0.926121
33.2845 17.5077 7.38242 0.382494 -0.0229792 0.923539
33.6031 15.9769 7.19776 0.378322 -0.02491 0.925269
33.5151 14.9706 7.21767 0.388013 -0.0197778 0.92142
33.2336 13.7432 7.29517 0.383596 -0.039379 0.92266
32.8071 12.4342 7.41801 0.382252 -0.0354781 0.923373
32.5402 11.4521 7.51361 0.449148 -0.0344954 0.892791
32.3713 10.4368 7.56568 0.438234 -0.0404524 0.897825
32.4408 9.19044 7.49452 0.409262 -0.0184144 0.912229
32.7423 8.14087 7.34494 0.401234 0.00883143 0.915816
33.1906 7.26091 7.17291 0.392567 0.0208703 0.919486
33.7901 6.40201 6.93608 0.373119 0.0179844 0.927581
34.4747 5.65834 6.6685 0.365595 0.00338802 0.930766
35.4424 4.52538 6.27395 0.389134 -0.00680072 0.921131
35.8955 3.63277 6.08208 0.389616 -0.000154796 0.920977
36.1101 2.05585 5.99211 0.39001 0.00137961 0.920716
35.8835 0.924765 6.07632 0.38025 -0.00771954 0.924852
35.4761 -0.0867167 6.23772 0.373833 -0.00804406 0.92746
34.9543 -1.02448 6.44243 0.376482 -0.00553086 0.926406
34.4686 -2.05447 6.63342 0.374442 0.00240033 0.927209
34.1143 -3.01146 6.78231 0.374994 0.0121076 0.926914
33.781 -4.15695 6.94524 0.381617 0.0164156 0.924158
33.5728 -5.19846 7.04596 0.387229 0.0153338 0.921856
33.3735 -6.88993 7.15137 0.381298 -0.0020975 0.924365
33.3177 -7.91162 7.16149 0.372628 -0.0060282 0.927945
33.3134 -9.18641 7.16276 0.376197 0.00309118 0.926517
33.4556 -10.1878 7.11583 0.381437 0.0128979 0.924301
33.7236 -11.3605 7.01987 0.383873 0.00996684 0.92333
34.0975 -12.7034 6.87444 0.39654 0.000664682 0.917911
34.5302 -13.7559 6.70179 0.406889 0.0247781 0.913141
34.9693 -14.7019 6.52932 0.384549 0.0108769 0.923038
35.3762 -15.6508 6.36368 0.39176 0.00715777 0.92004
35.7016 -16.6328 6.23294 0.391288 0.00508927 0.920252
35.9303 -17.6301 6.15011 0.38199 0.0115823 0.924094
35.8703 -19.4819 6.17927 0.373674 -0.00446366 0.927531
35.4046 -20.6931 6.35854 0.365031 -0.0107343 0.930929
34.4954 -21.6081 6.7004 0.36741 -0.0152326 0.929903
33.4409 -22.1817 7.12262 0.381387 -0.00495184 0.924367
32.3484 -22.4197 7.57194 0.39097 0.0134889 0.920162
31.0903 -22.3041 8.14772 0.417653 0.0178162 0.908432
29.913 -22.0018 8.65959 0.409814 0.0398542 0.911109
28.9872 -21.653 9.07819 0.424421 0.048713 0.904148
28.1107 -21.1738 9.46094 0.423911 0.0496537 0.90434
27.3309 -20.6177 9.79711 0.43099 0.0286912 0.901653
26.529 -19.7509 10.1747 0.424682 0.00964102 0.905254
25.6688 -18.6113 10.5803 0.429403 0.00133122 0.903104
25.0947 -17.5262 10.8186 0.409639 0.0256029 0.911887
24.634 -16.3848 10.9912 0.409847 0.0279518 0.911726
24.2289 -15.3319 11.1562 0.403821 0.0122917 0.914756
23.48 -13.6938 11.4735 0.405217 0.00239416 0.914217
22.7566 -12.9035 11.7927 0.40406 0.0124444 0.914589
21.4705 -12.3224 12.3564 0.409213 0.0128448 0.912316
20.5383 -12.3658 12.7674 0.402616 0.00821805 0.915332
19.3802 -12.9893 13.3007 0.427622 0.0365823 0.903216
18.5966 -13.6813 13.7019 0.430147 0.0350363 0.902078
17.6951 -14.9985 14.1674 0.408323 0.0452863 0.911644
17.1245 -16.5388 14.4792 0.428418 0.0134667 0.90348
16.8245 -17.511 14.6792 0.455524 0.0459204 0.889038
16.4659 -18.499 14.9087 0.464797 0.0455392 0.884244
15.6273 -20.1049 15.4058 0.47004 0.0224759 0.882358
14.9987 -20.8181 15.762 0.472546 0.0244274 0.880967
13.5609 -21.6013 16.6171 0.51897 0.061278 0.85259
12.3985 -21.5324 17.3036 0.481554 0.0770669 0.873
11.2624 -21.0631 17.8943 0.479368 0.0810003 0.873868
10.1944 -20.3806 18.4128 0.475624 0.0896931 0.875045
9.27245 -19.8502 18.8534 0.473019 0.0951608 0.875898
8.33977 -19.4797 19.3235 0.465148 0.0828871 0.881299
7.07262 -19.3293 19.9542 0.458209 0.108557 0.88219
6.12613 -19.4818 20.5087 0.505007 0.0844602 0.858876
5.13274 -20.0654 21.1195 0.475837 0.0356184 0.878405
4.178 -21.3119 21.6026 0.392337 -0.0191561 0.91808
3.76299 -22.3268 21.776 0.30749 0.0567512 0.949857
3.47136 -23.4343 21.9316 0.302728 0.0400235 0.952235
3.34531 -24.7497 22.0361 0.275125 0.0886764 0.956169
3.50787 -25.7686 22.1544 0.237079 0.186536 0.952875
3.86833 -26.7308 22.2554 0.266909 0.0840077 0.954162
4.31778 -27.6827 22.1625 0.410734 0.10184 0.90415
4.80569 -28.6268 22.0182 0.433416 0.138933 0.890216
5.32777 -29.6595 22.0029 0.385269 0.24608 0.889374
5.76385 -30.7798 22.1265 0.392213 0.239551 0.888038
6.39191 -32.0153 22.0642 0.478492 0.192665 0.856693
7.03222 -32.9336 21.9099 0.515161 0.175422 0.837898
7.69276 -33.66 21.6098 0.550442 0.162164 0.818973
8.51853 -34.2345 21.1703 0.544872 0.142752 0.826007
9.73216 -34.519 20.3844 0.571512 0.113423 0.812681
10.7693 -34.5246 19.627 0.57269 0.123912 0.810079
11.85 -34.3902 18.8639 0.560147 0.138459 0.81674
13.2194 -33.866 17.9821 0.475738 0.0625068 0.877268
14.0263 -33.4391 17.5197 0.483316 0.0758669 0.871945
14.8347 -33.0637 17.0191 0.496751 0.0720534 0.864897
16.0466 -32.6577 16.2891 0.50396 0.066485 0.861109
16.9783 -32.5124 15.7254 0.501235 0.0533875 0.863663
17.9212 -32.6695 15.1879 0.501083 0.0528383 0.863785
18.7868 -32.8035 14.6939 0.500343 0.0539735 0.864142
19.6832 -33.08 14.2124 0.45942 0.0469636 0.886975
20.9464 -33.7618 13.6005 0.454216 0.0481854 0.889588
21.9686 -34.6375 13.0963 0.497115 0.0560512 0.86586
22.8077 -35.4581 12.6515 0.498328 0.0500848 0.865482
23.8711 -36.848 12.1199 0.477639 0.035787 0.877809
24.5301 -37.9574 11.8208 0.465572 0.0326379 0.88439
25.015 -39.0602 11.621 0.449767 0.0438899 0.892067
25.1716 -40.0784 11.5924 0.450806 0.04726 0.891364
25.0772 -41.4076 11.7084 0.456226 0.0450027 0.888725
24.7922 -42.7541 11.927 0.464827 0.0357148 0.884545
24.3533 -43.7292 12.1846 0.479762 0.0344249 0.876556
23.5755 -44.7548 12.6766 0.482537 0.0484623 0.874504
22.8588 -45.7134 13.1005 0.465097 0.0327208 0.884654
21.9163 -46.5428 13.6251 0.493374 0.0354648 0.868413
21.1799 -47.0488 14.1015 0.509041 0.0560441 0.858916
19.8498 -47.732 14.9195 0.496759 0.0504376 0.866421
18.7237 -48.1572 15.5918 0.51464 0.0401135 0.856466
17.5734 -48.9528 16.3274 0.539966 0.0530619 0.839584
16.6194 -49.6297 17.0159 0.55831 0.0480037 0.828242
15.6328 -49.8014 17.6788 0.546182 0.0490715 0.836226
14.7832 -49.8118 18.2337 0.552044 0.0472402 0.832439
13.5759 -49.8376 19.0533 0.5745 0.0614289 0.815889
12.6449 -49.8561 19.75 0.606263 0.0441484 0.794035
11.2544 -49.9107 20.7186 0.523257 0.0528507 0.850523
10.2462 -49.9633 21.3401 0.539057 0.0444349 0.840866
9.39526 -49.9928 21.9113 0.556009 0.0418937 0.83012
8.5311 -50.0311 22.492 0.556781 0.0436894 0.829507
7.47739 -50.1222 23.223 0.571428 0.0393526 0.819702
6.60007 -50.1494 23.8369 0.577024 0.0482774 0.815249
5.68268 -50.171 24.4829 0.561409 0.0617308 0.825183
4.8212 -50.2093 25.0672 0.554694 0.0460593 0.830723
3.98187 -50.2582 25.6202 0.460351 -0.00779338 0.880837
2.24903 -50.3091 26.0736 0.184091 0.111571 0.976535
1.16498 -50.3089 26.2182 0.11796 0.0890797 0.988983
-0.141089 -50.2952 26.2402 -0.259962 -0.0447768 0.96458
-1.23198 -50.2496 25.9487 -0.277404 -0.0285159 0.960015
-2.30872 -50.2331 25.6064 -0.30802 -0.0178743 0.951212
-3.37351 -50.2412 25.2592 -0.351535 0.00834082 0.934715
-4.35487 -50.2125 24.7949 -0.441446 0.0103966 0.897227
-5.30741 -50.1608 24.325 -0.471447 0.0322041 0.880391
-6.17886 -50.1106 23.7727 -0.548216 0.0282972 0.835858
-7.03444 -50.0676 23.2089 -0.557167 0.0333266 0.829659
-7.89655 -50.0383 22.6074 -0.574823 0.0330178 0.817611
-8.77589 -50.0175 21.9832 -0.601419 0.0470206 0.796888
-9.6182 -50.0017 21.2963 -0.635483 0.054653 0.770178
-10.4414 -49.9812 20.6161 -0.610422 0.0358342 0.7904
-11.3439 -49.9254 19.9656 -0.580243 0.0201196 0.814195
-12.7046 -49.7695 19.0043 -0.571485 0.0136027 0.820499
-13.9785 -49.4115 18.0837 -0.593144 0.0214874 0.804809
-14.6991 -48.6587 17.5216 -0.572181 0.026246 0.819707
-15.3869 -47.613 17.0034 -0.570162 0.0359133 0.820742
-16.1313 -46.6482 16.448 -0.553136 0.0422463 0.831778
-16.7781 -46.0262 16.0055 -0.528091 0.0523164 0.847513
-17.703 -45.2128 15.3725 -0.530098 0.0673024 0.845223
-18.4111 -44.0759 14.8245 -0.535915 0.0721063 0.841187
-19.0023 -42.9425 14.4263 -0.466425 0.0439489 0.883464
-19.326 -41.462 14.1748 -0.48399 0.051712 0.873514
-19.2332 -40.1451 14.1586 -0.495479 0.0413644 0.867521
-18.8403 -38.9475 14.3188 -0.499295 0.0577104 0.864487
-18.1342 -37.8067 14.6561 -0.50701 0.0222832 0.861116
-17.5194 -37.1014 15.0296 -0.510356 -0.00428275 0.859951
-16.8422 -36.4239 15.4342 -0.503092 0.0289676 0.863097
-16.012 -35.761 15.8936 -0.540815 0.0528524 0.839479
-15.0281 -35.2178 16.4966 -0.547458 0.0580491 0.834787
-14.1774 -34.8815 17.0181 -0.546737 0.0990565 0.831425
-12.9653 -34.576 17.7466 -0.494056 0.108083 0.862655
-12.075 -34.4482 18.2344 -0.497057 0.0849346 0.863308
-10.9691 -34.1214 18.9122 -0.566828 0.0703497 0.820827
-10.1614 -33.562 19.4242 -0.558853 0.0925641 0.823702
-9.41951 -32.7916 19.7696 -0.491254 0.115994 0.863174
-8.62062 -31.5094 20.0427 -0.470408 0.114782 0.874949
-8.03057 -30.1488 20.1605 -0.485378 0.138837 0.86321
-7.51659 -29.1162 20.2637 -0.468405 0.160376 0.868812
-6.71004 -27.9035 20.4521 -0.466893 0.154613 0.870297
-6.15316 -26.8708 20.6839 -0.529715 0.0745795 0.844891
-5.79462 -25.9006 20.8123 -0.422309 0.0695425 0.903765
-5.56449 -24.7924 20.8088 -0.495549 0.11205 0.86132
-5.64497 -23.4825 20.6053 -0.495789 0.0931704 0.863429
-6.11075 -22.439 20.2506 -0.426322 0.0477052 0.903136
-7.04147 -21.4226 19.7505 -0.426218 0.0843549 0.900363
-7.87388 -20.8766 19.2122 -0.530884 0.0973527 0.841833
-8.84506 -20.5517 18.5529 -0.508269 0.104838 0.854249
-9.92882 -20.6678 18.0027 -0.440276 0.0202566 0.897633
-11.1384 -20.9427 17.365 -0.477293 0.0578309 0.876125
-12.5977 -21.167 16.627 -0.464045 0.0857349 0.881653
-13.783 -20.9576 15.9999 -0.462777 0.066219 0.883998
-14.8704 -20.3606 15.3831 -0.467373 0.071591 0.881154
-15.5669 -19.5874 14.9489 -0.469305 0.0716653 0.880123
-16.0843 -18.6641 14.6271 -0.457814 0.0454625 0.887885
-16.5295 -17.5478 14.3518 -0.43197 0.0346305 0.901203
-16.8915 -16.5544 14.1347 -0.429957 0.0407554 0.901929
-17.2482 -15.5721 13.9123 -0.440439 0.0460521 0.896577
-17.7261 -14.4716 13.6286 -0.441303 0.0393481 0.896495
-18.2655 -13.6469 13.368 -0.413451 0.0132084 0.91043
-19.0991 -12.5929 12.95 -0.434544 0.0382497 0.899838
-19.9254 -11.8584 12.5196 -0.432516 0.0396681 0.900749
-21.165 -11.474 11.9467 -0.404853 0.0263365 0.914003
-22.0801 -11.5245 11.5415 -0.411645 0.0236783 0.911022
-22.9655 -11.7815 11.1424 -0.425168 0.0173501 0.904934
-23.9101 -12.277 10.6977 -0.442037 0.000878556 0.896996
-24.7693 -13.0223 10.2752 -0.434858 0.00221066 0.900462
-25.8015 -14.0565 9.79226 -0.425701 0.00518084 0.904849
-26.7373 -14.8704 9.36179 -0.411332 0.00780581 0.911414
-27.4831 -15.4591 9.03502 -0.40601 -0.00376022 0.913861
-28.313 -15.958 8.66518 -0.401641 -0.00150887 0.915796
-29.1372 -16.3976 8.3054 -0.39564 0.000796697 0.918404
-30.0587 -16.7731 7.9163 -0.385467 0.00235739 0.922719
-30.9963 -17.0485 7.52317 -0.389611 0.00145188 0.920977
-32.064 -17.1176 7.07322 -0.384082 0.00139847 0.923296
-33.3676 -17.0164 6.52945 -0.387088 -0.00224235 0.92204
-34.2659 -16.7179 6.15325 -0.38594 0.00862955 0.922431
-35.2554 -16.1201 5.72373 -0.388828 0.0177302 0.92114
-36.0933 -15.2791 5.36627 -0.374483 0.0115924 0.927157
-36.5813 -14.0019 5.15763 -0.371913 0.0104659 0.928206
-36.7264 -12.6334 5.09858 -0.364161 -0.00533131 0.93132
-36.4821 -11.5077 5.20108 -0.35779 -0.000758817 0.933768
-35.977 -10.5245 5.36548 -0.354879 0.0283364 0.934482
-35.3909 -9.58512 5.55847 -0.366933 0.0211602 0.929872
-34.6176 -8.48579 5.85423 -0.380791 0.0183431 0.924479
-34.0777 -7.61589 6.08161 -0.423391 -0.00942074 0.905894
-33.4023 -5.9899 6.41938 -0.410384 -0.00477704 0.911753
-33.133 -4.59469 6.51683 -0.393735 0.0124855 0.919139
-33.0783 -3.35508 6.5185 -0.393116 0.0177296 0.919318
-33.2003 -1.60484 6.47328 -0.369349 -0.0244323 0.928969
-33.3158 0.040789 6.47652 -0.374267 -0.0287962 0.926863
-33.2814 1.26924 6.52557 -0.377725 -0.0263207 0.925543
-33.2986 2.28573 6.54777 -0.384797 -0.0153361 0.922784
-33.2945 3.31541 6.54724 -0.379634 0.00989739 0.925076
-33.4149 4.56428 6.47662 -0.381782 0.0204756 0.924026
-33.7802 6.03412 6.29448 -0.380578 0.0177496 0.924577
-34.2762 7.20538 6.07348 -0.365569 0.00358965 0.930633
-34.8166 8.03508 5.87213 -0.356306 0.0074678 0.934331
-35.428 8.79504 5.62866 -0.362009 0.0120618 0.932091
-36.3724 10.1402 5.26305 -0.376077 -0.0322597 0.926026
-36.7907 11.3269 5.12845 -0.390709 -0.00669091 0.920432
-36.7949 12.4016 5.12267 -0.379211 0.00652206 0.925233
-36.5369 13.7622 5.23896 -0.389429 -0.0154126 0.92078
-36.1454 14.7055 5.41834 -0.404424 -0.02086 0.914237
-35.4398 15.4523 5.72728 -0.371845 -0.0206296 0.928066
-34.1726 16.0702 6.25067 -0.374274 -0.0217903 0.927062
-32.9895 16.3678 6.73793 -0.395439 -0.0134387 0.918182
-32.0594 16.4089 7.15704 -0.412239 -0.00176825 0.911073
-30.8264 16.2691 7.72098 -0.422235 0.00627843 0.906464
-29.9456 16.0199 8.133 -0.427225 0.00321766 0.904119
-29.0647 15.6978 8.53356 -0.412926 -0.00671412 0.910726
-28.1565 15.3048 8.94256 -0.4093 -0.00422716 0.912384
-27.23 14.8632 9.33036 -0.390405 -0.0124932 0.920558
-26.277 14.1653 9.73198 -0.415517 -0.0100516 0.909527
-25.4501 13.3868 10.1042 -0.416667 -0.0059794 0.909022
-24.3625 12.523 10.5981 -0.417458 -0.00846786 0.908654
-23.4915 12.0871 10.9907 -0.419285 -0.0155519 0.907691
-21.808 11.5796 11.8154 -0.449557 -0.0158957 0.893097
-20.874 11.6515 12.2804 -0.443707 -0.0208897 0.895928
-19.9911 11.9002 12.7233 -0.445602 -0.0216113 0.894968
-19.1659 12.2904 13.1454 -0.444808 -0.0238427 0.895307
