-8.6864 -49.3031 24.1839 -0.651357 0.0526453 0.756857
-9.71161 -49.2788 23.2821 -0.660951 0.0582144 0.748155
-10.765 -49.2536 22.3428 -0.657477 0.052503 0.751604
-11.8326 -49.1891 21.4126 -0.645019 0.0409793 0.762918
-12.7728 -48.9816 20.6283 -0.630509 0.0314858 0.775498
-13.9228 -48.7435 19.7043 -0.616634 0.0295635 0.786666
-14.997 -48.2336 18.8531 -0.606576 0.0327184 0.794325
-15.8547 -47.564 18.1762 -0.598803 0.0407968 0.799854
-16.5026 -46.9992 17.6649 -0.591443 0.0426968 0.805176
-17.3547 -46.0207 16.9917 -0.577462 0.0501797 0.81485
-18.2283 -44.9034 16.3099 -0.564437 0.0531001 0.823691
-18.9685 -43.6861 15.7371 -0.548268 0.0513873 0.834655
-19.5795 -42.1565 15.2551 -0.532828 0.046368 0.8449
-19.7358 -40.8265 15.0911 -0.532187 0.0449924 0.845422
-19.4761 -39.5749 15.1874 -0.534643 0.0396227 0.844142
-18.5541 -37.9447 15.7062 -0.54458 0.0411652 0.837688
-17.4856 -36.7642 16.3485 -0.553542 0.0502214 0.831287
-16.7993 -36.1363 16.7609 -0.556493 0.055079 0.828994
-15.7235 -35.4477 17.4311 -0.560616 0.0665367 0.825377
-14.711 -35.1138 18.0892 -0.562479 0.0777741 0.82314
-13.7691 -34.7648 18.7023 -0.563869 0.084882 0.821488
-12.3771 -34.257 19.6167 -0.57084 0.0937802 0.815688
-11.1844 -33.6353 20.3767 -0.572724 0.113201 0.811882
-10.2737 -32.9566 20.9155 -0.566365 0.125241 0.814581
-9.47992 -32.2108 21.3564 -0.580038 0.141447 0.802206
-8.73861 -31.2581 21.7216 -0.577911 0.139499 0.804089
-8.01211 -30.1116 22.0464 -0.578851 0.138472 0.80359
-7.48076 -29.0566 22.2525 -0.585602 0.125583 0.80076
-6.91512 -27.5577 22.4415 -0.59307 0.123008 0.795697
-6.69255 -26.337 22.4388 -0.588004 0.103305 0.802228
-6.64439 -25.2547 22.3394 -0.592024 0.0965336 0.800115
-6.84254 -23.9398 22.0484 -0.588036 0.0885632 0.803971
-7.3142 -22.9606 21.6107 -0.575478 0.078959 0.813973
-8.03722 -22.2011 21.038 -0.558706 0.0739805 0.826056
-8.97505 -21.6148 20.3548 -0.548264 0.0738223 0.832967
-10.0726 -21.2468 19.6095 -0.53613 0.08132 0.840183
-11.1346 -21.095 18.9267 -0.527975 0.0838889 0.8451
-12.2169 -20.9659 18.2471 -0.520252 0.081301 0.850132
-13.3176 -20.8311 17.566 -0.511403 0.0738043 0.856157
-14.3606 -20.4436 16.9146 -0.506241 0.0695809 0.859566
-15.3389 -19.5423 16.2807 -0.495596 0.0662112 0.866021
-15.9881 -18.5404 15.8458 -0.481207 0.0634153 0.874307
-16.5509 -17.3107 15.4599 -0.469096 0.0573698 0.88128
-17.081 -16.1131 15.1084 -0.458594 0.0507179 0.887197
-17.7071 -14.84 14.7222 -0.450231 0.0442118 0.891817
-18.5482 -13.5715 14.2496 -0.441844 0.034931 0.896407
-19.4865 -12.5705 13.7565 -0.438954 0.0266746 0.89811
-20.4123 -11.9421 13.2878 -0.438163 0.0237414 0.898582
-22.1099 -11.4077 12.4429 -0.440261 0.0220297 0.897599
-23.3257 -11.3986 11.8456 -0.440269 0.0208737 0.897623
-24.2454 -11.6359 11.3994 -0.438329 0.0181444 0.898625
-25.5496 -12.2925 10.778 -0.432807 0.0137132 0.901366
-26.6385 -13.1108 10.2689 -0.428258 0.00751671 0.903625
-27.3859 -13.7778 9.92079 -0.423266 0.0053979 0.905972
-28.4704 -14.6586 9.42622 -0.414673 0.00394282 0.909959
-29.2556 -15.1862 9.0734 -0.410765 0.00424083 0.911728
-30.6232 -15.8054 8.47087 -0.402712 0.00566124 0.915307
-31.9734 -16.1227 7.88414 -0.39848 0.00695988 0.91715
-33.2511 -16.1099 7.33218 -0.395853 0.00722314 0.918286
-34.2816 -15.863 6.88674 -0.394112 0.00739524 0.919032
-35.2693 -15.2439 6.45788 -0.390835 0.0112403 0.92039
-36.0183 -13.9328 6.12507 -0.386979 0.0114706 0.922012
-36.0521 -12.1504 6.08786 -0.381165 0.0121413 0.924427
-35.726 -11.1792 6.2082 -0.383391 0.0137738 0.923472
-35.2418 -10.0684 6.39674 -0.383472 0.010085 0.923497
-34.7096 -8.96947 6.61012 -0.392024 0.0073443 0.919924
-34.1632 -7.84158 6.83573 -0.397198 0.00642527 0.917701
-33.6705 -6.60062 7.04678 -0.408432 0.00458228 0.912776
-33.2983 -5.45401 7.21043 -0.408697 0.00227873 0.912667
-33.091 -4.35273 7.30232 -0.399698 -0.00452815 0.916635
-33.026 -3.01853 7.33602 -0.399042 -0.00451395 0.916921
-33.0891 -1.72665 7.31618 -0.397645 -0.00418865 0.917528
-33.1663 -0.39907 7.29796 -0.389257 -0.0104617 0.92107
-33.2159 0.842788 7.29162 -0.390037 -0.0104692 0.920739
-33.2833 1.84173 7.27357 -0.390109 -0.00807407 0.920733
-33.3476 2.83997 7.25463 -0.390234 -0.00615479 0.920694
-33.5291 4.09518 7.18204 -0.392246 -0.00136097 0.919859
-33.8286 5.39834 7.05351 -0.394107 0.00176125 0.919063
-34.2936 6.76769 6.85129 -0.394316 0.00145045 0.918974
-34.949 8.23817 6.57068 -0.393266 -0.0011883 0.919424
-35.5865 9.56311 6.30529 -0.388183 -0.00531947 0.921565
-36.0987 10.784 6.09978 -0.386954 -0.00867068 0.922057
-36.3717 12.1349 5.99983 -0.386984 -0.00974491 0.922035
-36.074 13.6953 6.14774 -0.38929 -0.0147061 0.920995
-35.147 14.7995 6.56265 -0.392864 -0.018783 0.919401
-34.1337 15.3439 7.00979 -0.396423 -0.0200941 0.917846
-33.0265 15.5429 7.49979 -0.406147 -0.018791 0.91361
-31.706 15.4534 8.09598 -0.418589 -0.0160439 0.908027
-30.3935 15.1351 8.70357 -0.426154 -0.0146079 0.904531
-28.7772 14.3374 9.45401 -0.426513 -0.014954 0.904357
-27.7447 13.6189 9.92505 -0.424706 -0.0162941 0.905185
-26.8468 13.0043 10.3354 -0.425828 -0.0171181 0.904641
-25.9813 12.437 10.7335 -0.426261 -0.0188758 0.904401
-24.6084 11.7389 11.3714 -0.433381 -0.0234482 0.900906
-23.5416 11.4037 11.8795 -0.442156 -0.0276479 0.896512
-22.4742 11.2006 12.401 -0.442772 -0.0302396 0.896119
-21.2648 11.2603 13.0133 -0.451108 -0.0371692 0.891694
-19.9904 11.6553 13.6856 -0.458244 -0.0417469 0.887844
-19.0464 12.266 14.2062 -0.46256 -0.0422488 0.88558
-18.1828 12.9601 14.692 -0.465273 -0.0419284 0.884174
-17.3439 13.8336 15.1732 -0.466627 -0.0405114 0.883525
-16.5929 14.718 15.6099 -0.470511 -0.0391517 0.881518
-15.883 15.6835 16.0342 -0.478208 -0.0397115 0.877323
-15.1847 16.7261 16.4702 -0.490154 -0.0451717 0.870413
-14.4645 17.8022 16.9453 -0.505171 -0.0548718 0.861204
-13.6699 18.7875 17.4905 -0.520673 -0.0647338 0.851232
-12.943 19.4278 17.9975 -0.53073 -0.0684617 0.844764
-11.8289 20.1713 18.7978 -0.554549 -0.0797257 0.828298
-10.8942 20.4729 19.4773 -0.573068 -0.0824581 0.815347
-9.87808 20.8218 20.2546 -0.590988 -0.0865768 0.802014
-8.94854 21.233 20.9888 -0.595146 -0.0863499 0.798963
-8.16905 21.6983 21.6219 -0.597055 -0.0875128 0.797411
-7.30837 22.5121 22.3645 -0.603521 -0.0934396 0.791837
-7.21628 22.686 22.4566 -0.609211 -0.0981895 0.78689
-7.81365 22.86 22.0205 -0.603521 -0.0934396 0.791837
-8.78098 22.0997 21.2078 -0.597055 -0.0875128 0.797411
-9.86818 21.5944 20.3476 -0.584902 -0.0958553 0.805412
-10.8253 21.2406 19.6149 -0.580068 -0.0966615 0.808808
-12.3574 20.7686 18.5015 -0.554549 -0.0797257 0.828298
-13.2237 20.1955 17.8848 -0.534512 -0.0741437 0.841848
-13.9117 19.5787 17.4055 -0.528208 -0.0694406 0.84627
-14.618 18.7538 16.9199 -0.512118 -0.0599254 0.856821
-15.5434 17.4071 16.3036 -0.489939 -0.0441736 0.870583
-16.2403 16.3377 15.8691 -0.483135 -0.041845 0.874544
-16.9479 15.3483 15.448 -0.469842 -0.0345899 0.882065
-17.6582 14.5177 15.0375 -0.465724 -0.037076 0.884151
-18.4396 13.6364 14.5879 -0.463932 -0.0397993 0.884976
-19.3186 12.9049 14.0943 -0.463171 -0.0413238 0.885305
-20.348 12.2387 13.5268 -0.459112 -0.0393676 0.887503
-21.5695 11.9185 12.8844 -0.453769 -0.035441 0.890405
-23.1979 12.0447 12.069 -0.449891 -0.0299876 0.892572
-24.2221 12.3287 11.5733 -0.44196 -0.0222359 0.896756
-25.3477 12.852 11.0428 -0.432531 -0.0166754 0.901464
-26.4918 13.5922 10.5129 -0.42537 -0.0154573 0.904887
-27.3785 14.2458 10.1082 -0.424939 -0.0160708 0.905079
-28.3811 14.9515 9.65034 -0.425124 -0.0150711 0.905009
-29.33 15.4776 9.21217 -0.426513 -0.014954 0.904357
-30.4605 15.9779 8.68472 -0.426463 -0.0103603 0.904446
-31.7463 16.219 8.09164 -0.42042 -0.0132238 0.907224
-32.7775 16.2906 7.62771 -0.408698 -0.0163773 0.912515
-34.4823 16.0732 6.87519 -0.396423 -0.0200941 0.917846
-35.5214 15.5201 6.41725 -0.393863 -0.0191834 0.918969
-36.4176 14.6357 6.01706 -0.39263 -0.0156664 0.919563
-37.0091 13.2091 5.74491 -0.390305 -0.0121383 0.920605
-37.0744 11.8053 5.70094 -0.387489 -0.00979721 0.921822
-36.8138 10.7068 5.79906 -0.387095 -0.00924316 0.921993
-36.1559 9.15982 6.06312 -0.388183 -0.00531947 0.921565
-35.5678 7.92449 6.30711 -0.389982 -0.00160745 0.920819
-35.0403 6.85141 6.53117 -0.39173 0.00147115 0.920078
-34.6577 5.8587 6.69701 -0.393372 0.00214469 0.919376
-34.2627 4.43641 6.86909 -0.393108 0.00203627 0.919489
-34.0283 2.99752 6.96701 -0.389937 -0.00270005 0.920836
-33.9239 1.81438 7.00381 -0.387797 -0.00833131 0.921705
-33.8846 0.640315 7.00805 -0.38568 -0.0102042 0.922574
-33.8546 -0.563761 7.00521 -0.389257 -0.0104617 0.92107
-33.7394 -1.81061 7.04001 -0.389239 -0.00986948 0.921084
-33.7095 -2.98038 7.04057 -0.390741 -0.0110452 0.920432
-33.7359 -4.40597 7.02084 -0.399698 -0.00452815 0.916635
-33.9688 -5.4049 6.91388 -0.400125 -0.00188391 0.916453
-34.4871 -6.85892 6.69049 -0.399849 0.0029952 0.916576
-35.2801 -8.57584 6.36385 -0.390867 0.00813082 0.920403
-35.9449 -9.93686 6.10338 -0.383472 0.010085 0.923497
-36.4631 -11.0884 5.90477 -0.379111 0.0126722 0.925264
-36.8605 -12.4325 5.75825 -0.381165 0.0121413 0.924427
-36.8853 -13.7338 5.76197 -0.38394 0.0101702 0.923302
-36.5589 -14.8377 5.90928 -0.386178 0.00831607 0.922387
-35.9351 -15.704 6.18066 -0.390098 0.00892312 0.92073
-35.0513 -16.3548 6.56202 -0.393007 0.00792874 0.919501
-34.0882 -16.727 6.97664 -0.394112 0.00739524 0.919032
-32.7169 -16.9134 7.56881 -0.395853 0.00722314 0.918286
-31.3875 -16.8298 8.14406 -0.39848 0.00695988 0.91715
-30.1652 -16.4404 8.67633 -0.402712 0.00566124 0.915307
-29.0166 -15.9477 9.18516 -0.410778 0.00520692 0.911716
-28.1577 -15.3401 9.57202 -0.412807 0.00443663 0.910807
-27.1257 -14.5327 10.0485 -0.426311 0.00565339 0.904557
-26.4202 -13.8626 10.3787 -0.427708 0.00619341 0.903894
-25.2748 -12.9092 10.9219 -0.438207 0.0136069 0.89877
-24.4472 -12.4593 11.3168 -0.440913 0.0157319 0.897401
-23.3542 -12.1003 11.8478 -0.442739 0.0208959 0.896406
-22.3239 -12.0723 12.3553 -0.441105 0.0236717 0.897143
-21.1422 -12.3609 12.9427 -0.440518 0.0232961 0.897442
-19.8753 -13.1345 13.5852 -0.438272 0.0302965 0.898331
-18.9983 -14.0476 14.047 -0.44117 0.0357033 0.89671
-18.4305 -14.8874 14.3623 -0.442924 0.0378976 0.895757
-17.8031 -16.0939 14.7367 -0.450549 0.0431404 0.891708
-17.252 -17.3444 15.0895 -0.45985 0.0469007 0.886753
-16.6458 -18.7511 15.5001 -0.472475 0.0507616 0.879875
-15.9427 -19.9786 15.9715 -0.489099 0.0608078 0.870093
-15.1501 -20.8459 16.4874 -0.500686 0.0669192 0.863033
-14.384 -21.3103 16.9711 -0.506241 0.0695809 0.859566
-13.3481 -21.6543 17.6209 -0.517233 0.0770039 0.852363
-12.3404 -21.7173 18.2439 -0.519663 0.0793099 0.850678
-10.9186 -21.8544 19.137 -0.527975 0.0838889 0.8451
-9.9646 -22.0157 19.7529 -0.53613 0.08132 0.840183
-8.8876 -22.4517 20.4866 -0.548264 0.0738223 0.832967
-7.81394 -23.36 21.2963 -0.566301 0.0749973 0.820742
-7.33947 -24.3187 21.7274 -0.584193 0.0828008 0.807347
-7.26406 -25.8755 21.9618 -0.586876 0.0981197 0.803704
-7.47045 -27.3661 22.0116 -0.580369 0.111859 0.806634
-7.838 -28.4943 21.9081 -0.567378 0.121068 0.814509
-8.36385 -29.5903 21.7043 -0.563266 0.12362 0.816957
-9.04392 -30.6871 21.409 -0.558673 0.126415 0.819697
-9.81558 -31.7215 21.0443 -0.561477 0.124144 0.818111
-10.5096 -32.364 20.6604 -0.566365 0.125241 0.814581
-11.3103 -32.976 20.1952 -0.56861 0.119874 0.813814
-12.4787 -33.6272 19.4733 -0.56634 0.097648 0.81834
-13.4427 -33.9461 18.8429 -0.563762 0.0878246 0.821246
-14.5373 -34.2911 18.1285 -0.560026 0.081676 0.824428
-15.731 -34.6409 17.358 -0.552602 0.0711004 0.830398
-16.6464 -35.0924 16.7877 -0.548537 0.0606682 0.833895
-17.9136 -36.2281 16.0314 -0.544824 0.0493906 0.837081
-18.7163 -37.1084 15.5556 -0.544872 0.0446915 0.837327
-19.3999 -37.8836 15.1534 -0.54458 0.0411652 0.837688
-19.9948 -38.9576 14.8336 -0.532274 0.0403083 0.845605
-20.3436 -39.9464 14.6698 -0.518049 0.0427662 0.854279
-20.4451 -41.0019 14.6603 -0.512614 0.0425947 0.857559
-20.2981 -42.1497 14.8104 -0.525637 0.0449638 0.849518
-19.9499 -43.2573 15.0819 -0.532828 0.046368 0.8449
-19.3578 -44.4334 15.5299 -0.538959 0.0473666 0.840998
-18.6423 -45.501 16.0695 -0.554073 0.0500536 0.830961
-17.7629 -46.5813 16.7399 -0.568874 0.0500711 0.820897
-17.0197 -47.4209 17.3147 -0.584458 0.0446224 0.810195
-16.2331 -48.1567 17.9253 -0.583912 0.0423992 0.810694
-14.8569 -49.1713 18.999 -0.601348 0.0349192 0.798223
-13.7999 -49.5786 19.832 -0.612142 0.0304168 0.790162
-12.755 -49.7351 20.6734 -0.630509 0.0314858 0.775498
-11.8362 -49.9461 21.4538 -0.649766 0.0446715 0.758777
-10.7787 -49.9849 22.3839 -0.664743 0.0543005 0.745095
-9.71372 -50.0203 23.338 -0.660951 0.0582144 0.748155
-8.71739 -50.0779 24.212 -0.643597 0.0542424 0.763266
-7.72852 -50.133 25.0289 -0.616286 0.0372447 0.786093
-6.72683 -50.2105 25.7666 -0.554274 0.0157999 0.831148
-5.69235 -50.3008 26.4129 -0.489672 -0.0129215 0.870339
-4.67197 -50.3144 26.9209 -0.448358 -0.0127226 0.893739
-3.08066 -50.3302 27.5303 -0.317225 -0.0329888 0.947256
-2.00278 -50.3223 27.8126 -0.221379 -0.0426528 0.97384
-0.880319 -50.3168 27.9934 -0.123553 -0.0405294 0.991038
0.279155 -50.3467 28.0748 -0.0205816 -0.0336157 0.998543
1.53818 -50.3012 28.0472 0.0949864 -0.0164709 0.994465
2.92047 -50.3491 27.8597 0.162924 -0.0338383 0.985409
4.40906 -50.3049 27.4813 0.301796 -0.0131289 0.95193
5.52787 -50.2565 27.0068 0.433566 -0.0178215 0.899677
6.52593 -50.1469 26.391 0.537524 0.0101216 0.843037
8.19637 -50.0257 25.1794 0.612797 0.0391937 0.789193
9.21907 -50.0325 24.3371 0.642552 0.0535277 0.764359
10.1092 -50.003 23.5854 0.642424 0.0505033 0.764684
11.0844 -49.9808 22.777 0.632643 0.051987 0.772696
12.2642 -49.9228 21.8225 0.622708 0.0554858 0.780482
13.2169 -49.9173 21.0665 0.618481 0.0579535 0.78366
14.1769 -49.7619 20.298 0.617361 0.0585579 0.784497
15.2992 -49.4162 19.4041 0.609196 0.0526931 0.791259
16.3061 -49.1801 18.63 0.598697 0.0547737 0.7991
17.1762 -48.9752 17.992 0.574534 0.0508875 0.816871
18.0244 -48.7063 17.389 0.561344 0.0492814 0.826092
18.8836 -48.447 16.7971 0.552704 0.0483911 0.831951
19.7192 -48.1539 16.2334 0.542187 0.0451089 0.839022
20.6355 -47.761 15.6289 0.537951 0.0419743 0.841929
21.8504 -47.1384 14.8392 0.525502 0.0413511 0.849777
22.7019 -46.4261 14.2885 0.515445 0.0377975 0.856082
23.5048 -45.5354 13.7709 0.510499 0.0362482 0.859105
24.3087 -44.3631 13.252 0.498135 0.0349828 0.866376
24.8396 -43.2557 12.9034 0.496313 0.0369556 0.867355
25.2873 -42.0757 12.6071 0.4884 0.0346673 0.871929
25.5523 -40.7172 12.4098 0.483662 0.0357509 0.874517
25.5719 -39.3855 12.3447 0.474715 0.0373557 0.87934
25.3004 -38.1405 12.4361 0.478967 0.0406421 0.876888
24.6851 -36.93 12.7151 0.483697 0.0429118 0.87418
23.554 -35.6503 13.281 0.488091 0.043398 0.871712
22.6102 -34.9205 13.7778 0.493991 0.0455194 0.868274
21.2978 -34.1352 14.4903 0.502742 0.0463234 0.863185
20.3587 -33.7088 15.0168 0.507288 0.0500759 0.860314
19.3745 -33.4254 15.5865 0.518826 0.0558356 0.853045
18.3338 -33.196 16.2055 0.522795 0.0628426 0.850131
17.2478 -33.2183 16.886 0.532883 0.0693944 0.843337
16.1275 -33.4688 17.6231 0.540024 0.0759412 0.838214
15.2655 -33.7904 18.2105 0.54467 0.0826361 0.83456
14.0797 -34.1713 19.0383 0.552323 0.0936275 0.828333
12.6686 -34.5746 20.0582 0.573701 0.11363 0.811107
11.7644 -34.4872 20.696 0.576715 0.11932 0.808159
10.677 -34.2746 21.4716 0.604672 0.133072 0.785215
9.75193 -33.927 22.1321 0.616439 0.143281 0.774164
8.74508 -33.1513 22.801 0.625312 0.155379 0.764716
8.02611 -32.2799 23.2197 0.637378 0.15957 0.753763
7.08373 -30.6565 23.6817 0.643214 0.166038 0.747463
6.4874 -29.2581 23.8803 0.649945 0.174252 0.739725
6.07155 -28.1527 23.9888 0.64308 0.173359 0.745881
5.73028 -26.9943 24.0281 0.623169 0.157904 0.765889
5.38635 -25.6836 24.0453 0.602368 0.116506 0.78965
5.30214 -24.4372 23.9341 0.599294 0.104041 0.793677
5.50488 -23.1472 23.6753 0.591889 0.0420122 0.804444
6.09732 -21.9118 23.1688 0.621842 0.0363396 0.78227
7.12764 -20.9681 22.2815 0.635262 0.0413126 0.77118
8.12463 -20.7015 21.4781 0.591376 0.0538933 0.804209
8.99788 -20.7791 20.8733 0.572213 0.0549871 0.818246
10.217 -21.2112 20.0988 0.539992 0.0636612 0.839221
11.1917 -21.6404 19.5169 0.528508 0.0722095 0.845846
12.1162 -21.9984 18.9738 0.525097 0.0720713 0.847985
13.1047 -22.1729 18.3824 0.520984 0.0766743 0.850116
14.1039 -22.0447 17.7589 0.520216 0.0775598 0.850505
15.543 -21.3875 16.8273 0.510736 0.0664549 0.857114
16.282 -20.434 16.3285 0.499663 0.0533012 0.864552
16.8847 -19.3467 15.923 0.495711 0.0476041 0.867181
17.3439 -18.0477 15.612 0.473443 0.037449 0.880008
17.7598 -16.7188 15.3376 0.46612 0.032725 0.884104
18.2802 -15.4816 15.0237 0.4602 0.0280784 0.887364
18.9327 -14.4206 14.656 0.454457 0.0249429 0.890411
19.7206 -13.528 14.2332 0.449727 0.0228206 0.89287
20.8232 -12.9462 13.671 0.442478 0.019478 0.896565
22.2673 -12.9134 12.9651 0.436608 0.0171374 0.899488
23.2928 -13.4075 12.481 0.433405 0.018944 0.901
23.9958 -14.0522 12.1572 0.432668 0.0196859 0.901338
24.633 -14.9347 11.8722 0.431542 0.020571 0.901858
25.3108 -16.1647 11.5774 0.429949 0.0211516 0.902605
25.7862 -17.0915 11.3736 0.430761 0.0215146 0.902209
26.3132 -17.9815 11.142 0.429575 0.0205094 0.902797
27.0361 -19.1806 10.8243 0.430557 0.0207548 0.902325
27.6663 -19.9426 10.5414 0.429182 0.0209743 0.902973
28.6269 -20.7933 10.107 0.426377 0.02167 0.904285
29.4366 -21.3181 9.73998 0.423766 0.0229135 0.905481
30.3344 -21.7668 9.33372 0.424356 0.0267827 0.905095
31.7876 -22.1893 8.67234 0.419456 0.0221473 0.907504
33.0104 -22.2219 8.12703 0.402019 0.0117109 0.915537
33.9358 -22.058 7.72522 0.396349 0.011334 0.91803
35.1108 -21.3904 7.22705 0.386303 0.00356694 0.922365
35.9875 -20.1302 6.85985 0.383429 0.00307861 0.923564
36.2758 -19.0612 6.73483 0.38487 0.00657365 0.922945
36.294 -17.9768 6.71934 0.388812 0.00776337 0.921282
36.0504 -16.8785 6.81112 0.392014 0.00862307 0.919919
35.7608 -15.9121 6.92509 0.394704 0.0105463 0.918742
35.2095 -14.43 7.14712 0.40016 0.0100652 0.916389
34.8187 -13.3161 7.30628 0.399845 0.00834913 0.916544
34.4905 -12.1686 7.44056 0.399601 0.0066646 0.916665
34.2106 -10.9475 7.5535 0.39892 0.00554173 0.916968
34.0336 -9.71407 7.62215 0.394946 0.00546582 0.918688
33.9383 -8.58916 7.65691 0.394805 0.00503776 0.918751
33.9882 -7.49984 7.62957 0.394501 0.00543331 0.918879
34.1184 -6.2468 7.56545 0.394661 0.00702953 0.918799
34.3113 -5.26866 7.47398 0.393446 0.00760282 0.919315
34.5855 -3.94558 7.34611 0.390883 0.00747361 0.92041
34.9023 -2.99692 7.20465 0.389052 0.00609842 0.921194
35.3303 -1.77895 7.02246 0.386424 0.000911387 0.92232
35.834 -0.444408 6.81295 0.385288 -0.00234016 0.922792
36.2979 0.960366 6.62243 0.387835 -0.00347311 0.921721
36.4527 2.38385 6.56181 0.391075 -0.00350417 0.920351
36.1899 3.65968 6.67995 0.391969 -0.00422331 0.919969
35.7553 4.67044 6.86946 0.390305 -0.00330537 0.920679
35.1823 5.66152 7.11483 0.390772 -0.00263688 0.920483
34.5038 6.78243 7.40517 0.389305 -0.00294644 0.921104
33.8951 7.96966 7.67174 0.394415 -0.00655257 0.918907
33.4436 9.26023 7.88262 0.402377 -0.0129373 0.915379
33.3203 10.6465 7.9591 0.4062 -0.0168046 0.913621
33.3547 11.6848 7.96684 0.408439 -0.019414 0.912578
33.5474 13.0661 7.91346 0.410872 -0.0223388 0.911419
33.746 14.3588 7.8559 0.414342 -0.0225434 0.909842
33.82 15.6681 7.85237 0.415389 -0.0204342 0.909414
33.6858 16.9161 7.94054 0.417367 -0.0181749 0.908556
33.2601 18.0895 8.15909 0.416201 -0.0179652 0.909095
32.5124 18.8862 8.517 0.416936 -0.0178513 0.90876
31.0823 19.5658 9.19225 0.42113 -0.0199985 0.906778
29.7968 19.6667 9.80097 0.428577 -0.0236473 0.903193
28.732 19.5307 10.3092 0.437219 -0.0274286 0.898932
27.7326 19.1675 10.7867 0.440023 -0.0303515 0.897471
26.707 18.5868 11.2725 0.44108 -0.0317589 0.896904
25.7139 17.8806 11.7391 0.44985 -0.0382401 0.892281
24.6918 16.9555 12.2138 0.446241 -0.0372784 0.894133
23.7401 16.084 12.6591 0.454378 -0.0434847 0.889744
22.5286 15.3866 13.2447 0.459588 -0.0479988 0.886833
21.0466 15.059 13.9969 0.462486 -0.0509554 0.885161
20.1233 15.151 14.4856 0.464942 -0.053918 0.883696
18.8254 15.7996 15.2144 0.468961 -0.0564756 0.881411
17.9571 16.9697 15.7575 0.472559 -0.0594909 0.879289
17.4875 17.9685 16.0862 0.478194 -0.0632762 0.875972
17.1633 19.0577 16.3453 0.481822 -0.0667826 0.87372
16.7938 20.2108 16.6422 0.483301 -0.0721077 0.87248
16.0247 21.7423 17.2048 0.486442 -0.0791463 0.870119
15.1267 22.6114 17.7964 0.497385 -0.0858428 0.863242
14.2875 23.0797 18.3348 0.508219 -0.0922734 0.856229
13.2791 23.5258 19.0021 0.528061 -0.103766 0.84278
12.1872 23.9966 19.7705 0.551703 -0.118223 0.82554
11.1937 24.6182 20.5501 0.576397 -0.131635 0.806416
10.5676 25.6082 21.1759 0.593685 -0.143753 0.791588
10.3163 26.517 21.5471 0.603422 -0.153549 0.782499
10.3177 27.8269 21.8181 0.613745 -0.162435 0.772606
10.6475 28.8039 21.765 0.597251 -0.17719 0.782219
11.3804 30.0726 21.4983 0.599381 -0.183291 0.779192
12.0767 30.8908 21.1451 0.598107 -0.170471 0.782947
13.3437 31.8959 20.3865 0.593062 -0.149186 0.791165
14.3353 32.4891 19.7421 0.591204 -0.127451 0.796374
15.2834 33.1371 19.1344 0.588803 -0.107266 0.801101
16.2505 33.9466 18.5313 0.583564 -0.0913358 0.806866
17.2019 34.9517 17.9579 0.575082 -0.0814638 0.813977
18.0876 36.0686 17.4427 0.565982 -0.0747213 0.820982
18.8644 37.1075 17.0028 0.562192 -0.0668126 0.824297
19.7057 38.2743 16.5295 0.54784 -0.0634839 0.834164
20.2623 39.4781 16.2474 0.550262 -0.0588991 0.832892
20.6459 40.6405 16.0729 0.551218 -0.0531007 0.832662
20.8067 41.7519 16.0348 0.548101 -0.0482848 0.835008
20.7335 42.9469 16.1556 0.560187 -0.0506908 0.826804
20.4081 43.9401 16.4324 0.566839 -0.0517014 0.822155
19.6874 45.3341 17.0261 0.580023 -0.0539693 0.812754
18.9569 46.2723 17.6212 0.587762 -0.0539499 0.807231
18.2504 47.0523 18.2096 0.6024 -0.0544721 0.796334
17.4493 47.783 18.8854 0.616672 -0.0563998 0.785196
16.6729 48.342 19.5506 0.631231 -0.0607149 0.773201
15.9488 48.7218 20.1839 0.645409 -0.0627449 0.761238
15.1038 49.1415 20.9441 0.653915 -0.0648866 0.753776
14.2357 49.4677 21.7293 0.657291 -0.0654485 0.750785
13.3457 49.7006 22.5281 0.654328 -0.0581244 0.753953
12.4166 49.8489 23.3489 0.652038 -0.0475818 0.756651
11.3717 49.9441 24.2582 0.651003 -0.0332906 0.75831
10.4173 50.055 25.0739 0.640455 -0.0187469 0.76764
9.37271 50.0978 25.9225 0.610579 -0.00114508 0.791563
8.42726 50.1265 26.6238 0.574203 0.0117194 0.818161
7.35963 50.1888 27.3181 0.513751 0.0172074 0.857301
6.40771 50.2386 27.8537 0.475162 0.0226583 0.879324
5.18786 50.3221 28.4254 0.420219 0.0304993 0.906854
4.02139 50.3767 28.866 0.302059 0.0376511 0.951425
3.00288 50.4375 29.1358 0.256021 0.036044 0.965994
1.66685 50.4579 29.3603 0.110094 0.0732507 0.990033
0.592923 50.4954 29.417 0.0032729 0.0736287 0.996099
-0.409832 50.4095 29.3772 -0.092776 0.0459462 0.994073
-1.51955 50.4336 29.2151 -0.175735 0.0708177 0.981351
-2.69382 50.4026 28.9644 -0.256292 0.0557638 0.964258
-3.84406 50.4157 28.6107 -0.326908 0.0656113 0.942077
-4.92911 50.3782 28.183 -0.419299 0.0496143 0.905333
-6.13043 50.3003 27.5668 -0.47384 0.0453303 0.879108
-7.41485 50.2151 26.7711 -0.553959 0.0268163 0.831578
-8.43857 50.1689 26.0257 -0.608849 0.0117019 0.792676
-9.48194 50.126 25.1678 -0.635616 -0.00256929 0.771999
-10.6072 50.0224 24.179 -0.669377 -0.0421187 0.741567
-11.6592 49.9225 23.2166 -0.67494 -0.0621444 0.735212
-12.8186 49.8497 22.1467 -0.673032 -0.0733244 0.735967
-13.9487 49.7628 21.1135 -0.666585 -0.0770617 0.74143
-15.1705 49.6588 20.0258 -0.656179 -0.0766236 0.750694
-16.3071 49.5163 19.0418 -0.642501 -0.0678043 0.763244
-17.1129 49.4645 18.3689 -0.636541 -0.0674077 0.768291
-18.1669 49.1403 17.4866 -0.624441 -0.0592818 0.778794
-18.9995 48.4866 16.7849 -0.61178 -0.0545103 0.789114
-19.6522 47.408 16.2206 -0.593368 -0.0560608 0.802965
-20.0913 46.285 15.8244 -0.588992 -0.0587517 0.805972
-20.3508 45.1779 15.5658 -0.567493 -0.0596698 0.821212
-20.3451 44.1276 15.4924 -0.556043 -0.0569302 0.829195
-20.2036 42.9707 15.5097 -0.561125 -0.0598986 0.825552
-19.87 41.7725 15.647 -0.565837 -0.0633801 0.822072
-19.4984 40.8321 15.8266 -0.567613 -0.0650359 0.820718
-18.8254 39.8275 16.2132 -0.569486 -0.0676655 0.819211
-18.1457 38.9222 16.6106 -0.574393 -0.0684279 0.815691
-17.4143 37.9776 17.0482 -0.576879 -0.0731567 0.813543
-16.6166 37.1186 17.5376 -0.581466 -0.0804034 0.809573
-15.8424 36.2921 18.0044 -0.584387 -0.0851982 0.806963
-14.8904 35.3517 18.5844 -0.5798 -0.0995188 0.808623
-13.7272 34.301 19.2937 -0.585282 -0.110414 0.80325
-12.7993 33.5706 19.884 -0.604159 -0.125468 0.786917
-11.9181 32.8924 20.4523 -0.607436 -0.132028 0.783314
-11.1355 32.3447 20.9709 -0.60853 -0.13567 0.781834
-10.3615 31.8103 21.5117 -0.625658 -0.14451 0.766545
-9.37203 31.0157 22.1813 -0.644941 -0.15656 0.747889
-8.34898 30.0831 22.8988 -0.656242 -0.163864 0.736529
-7.67732 28.9967 23.237 -0.650335 -0.173641 0.739536
-7.17134 27.8565 23.3969 -0.641088 -0.174945 0.747234
-6.85552 26.6496 23.3832 -0.632712 -0.159496 0.757613
-6.78919 25.2612 23.1713 -0.628934 -0.141879 0.764372
-7.17022 24.0777 22.6714 -0.620529 -0.113646 0.775884
-7.34174 23.7513 22.4924 -0.609211 -0.0981895 0.78689
-7.85197 24.3071 22.1766 -0.602376 -0.113203 0.790086
-8.28403 23.3879 21.7288 -0.595188 -0.101648 0.797102
-9.16198 22.8179 21.0115 -0.589342 -0.098546 0.80185
-10.7137 22.0249 19.7894 -0.582211 -0.0964128 0.807301
-11.8885 21.7652 18.9287 -0.563249 -0.0990581 0.820261
-12.8118 21.4111 18.2686 -0.547184 -0.0887899 0.832222
-13.5272 20.9226 17.7587 -0.539397 -0.0830356 0.837947
-14.4768 20.0957 17.0984 -0.517661 -0.0652891 0.853034
-15.2374 19.1166 16.5765 -0.503911 -0.0549049 0.861947
-15.9345 18.0301 16.1151 -0.489939 -0.0441736 0.870583
-16.6308 16.9334 15.6811 -0.477879 -0.0364081 0.877641
-17.354 15.9126 15.2538 -0.469842 -0.0345899 0.882065
-18.0002 15.1891 14.8855 -0.465173 -0.0353008 0.884514
-18.5951 14.4141 14.5416 -0.464655 -0.0382772 0.884662
-19.4082 13.7274 14.0855 -0.464352 -0.0373345 0.884863
-20.8302 12.7811 13.3014 -0.459112 -0.0393676 0.887503
-22.099 12.5499 12.6397 -0.453769 -0.035441 0.890405
-23.3755 12.7716 12.0008 -0.446071 -0.0252424 0.89462
-24.515 13.1918 11.4483 -0.437634 -0.0189983 0.898929
-25.8596 13.9932 10.817 -0.429459 -0.0154328 0.902945
-27.0988 14.9312 10.2492 -0.423599 -0.0134027 0.905749
-28.0089 15.5826 9.83501 -0.423466 -0.0122942 0.905828
-28.9247 16.0777 9.41105 -0.426577 -0.0112882 0.90438
-29.9684 16.5725 8.92354 -0.426463 -0.0103603 0.904446
-30.9826 16.9487 8.4518 -0.419549 -0.00869606 0.907691
-32.455 17.093 7.78334 -0.408324 -0.012399 0.912753
-33.7431 17.056 7.21554 -0.398229 -0.0176974 0.917115
-34.8738 16.7788 6.72222 -0.394251 -0.0197651 0.91879
-35.8232 16.2685 6.30363 -0.39518 -0.0193604 0.918399
-36.7962 15.4633 5.86856 -0.396109 -0.0157333 0.918068
-37.3918 14.4384 5.59703 -0.393997 -0.0115118 0.919038
-37.7171 13.4471 5.44636 -0.391193 -0.0096527 0.920256
-37.7994 11.9923 5.39723 -0.388675 -0.00872967 0.921333
-37.4918 10.4585 5.51242 -0.38665 -0.0081289 0.92219
-36.9309 9.15731 5.73759 -0.386992 -0.00604024 0.922063
-36.1032 7.42545 6.07953 -0.388887 -0.0022739 0.921282
-35.5235 6.31439 6.3263 -0.39173 0.00147115 0.920078
-35.0737 5.05724 6.52183 -0.392275 0.00255277 0.919844
-34.762 3.60233 6.65749 -0.391001 4.58761e-05 0.920388
-34.5728 1.88866 6.73123 -0.389074 -0.00518951 0.921191
-34.5538 0.487561 6.7266 -0.38568 -0.0102042 0.922574
-34.5495 -0.663803 6.71423 -0.384142 -0.0120642 0.923195
-34.3868 -1.92929 6.76516 -0.389239 -0.00986948 0.921084
-34.3485 -3.21438 6.76491 -0.392385 -0.0112199 0.919731
-34.3808 -4.4592 6.73936 -0.399698 -0.00452815 0.916635
-34.6771 -5.55063 6.60442 -0.395357 -0.0053763 0.918501
-35.1312 -6.67771 6.41155 -0.39085 0.00477415 0.92043
-35.6807 -7.89366 6.1903 -0.38412 0.00915131 0.923229
-36.4153 -9.30029 5.90298 -0.377902 0.00980274 0.925788
-37.0382 -10.6761 5.66651 -0.375512 0.00958367 0.926768
-37.5229 -11.9262 5.4829 -0.377557 0.0087217 0.925943
-37.6027 -13.4979 5.46403 -0.380456 0.00733898 0.924768
-37.3007 -15.0974 5.60108 -0.384274 0.00787371 0.923183
-36.6734 -16.0595 5.87189 -0.387432 0.00638205 0.921876
-35.752 -16.8302 6.26714 -0.390896 0.0054893 0.920418
-34.4573 -17.4086 6.82306 -0.393759 0.00408672 0.919205
-32.8638 -17.6666 7.50959 -0.396555 0.00482921 0.917997
-31.6151 -17.6122 8.05021 -0.398655 0.0059334 0.917081
-30.1951 -17.2522 8.66852 -0.402822 0.00625168 0.915255
-28.6817 -16.6231 9.34033 -0.408716 0.00508747 0.912645
-27.606 -15.8185 9.83001 -0.422511 0.00485856 0.906339
-26.712 -15.1559 10.2474 -0.424898 0.00467887 0.905227
-25.8485 -14.2736 10.658 -0.438221 0.0087658 0.898824
-24.8592 -13.4436 11.1326 -0.438207 0.0136069 0.89877
-23.7373 -12.8937 11.6775 -0.443139 0.0187334 0.896254
-22.4632 -12.7666 12.3051 -0.442881 0.0224627 0.896297
-21.2735 -13.2034 12.9047 -0.440461 0.0288838 0.897306
-20.1897 -13.7734 13.4533 -0.438563 0.0292119 0.898225
-19.3263 -14.6933 13.9114 -0.44117 0.0357033 0.89671
-18.678 -15.7537 14.2776 -0.446713 0.0418319 0.893684
-18.1535 -16.8925 14.5969 -0.455112 0.045656 0.889239
-17.681 -18.0583 14.9024 -0.465986 0.0490589 0.883391
-17.1082 -19.3324 15.2828 -0.477357 0.0526665 0.8771
-16.5445 -20.4092 15.6632 -0.486569 0.0557915 0.871844
-15.8124 -21.2759 16.1387 -0.495264 0.0623776 0.866495
-14.8069 -21.9784 16.7761 -0.505453 0.0680029 0.860165
-13.5303 -22.4302 17.5813 -0.515368 0.0742051 0.853743
-12.2015 -22.4586 18.3997 -0.524064 0.0822816 0.847693
-10.9933 -22.5988 19.163 -0.528104 0.0823887 0.845168
-9.95899 -22.8453 19.8304 -0.533844 0.0688751 0.842726
-9.13296 -23.2055 20.3939 -0.539067 0.066535 0.83962
-8.29384 -23.7596 20.9931 -0.572234 0.0663505 0.817305
-7.86632 -24.665 21.3825 -0.579211 0.0769154 0.811538
-7.964 -26.1494 21.4888 -0.581086 0.104417 0.807088
-8.05975 -27.2965 21.578 -0.580369 0.111859 0.806634
-8.48234 -28.5128 21.4621 -0.567378 0.121068 0.814509
-9.09686 -29.7137 21.2231 -0.559131 0.126306 0.819401
-10.0223 -31.0506 20.7991 -0.558247 0.127192 0.819867
-11.0437 -31.9633 20.2408 -0.556728 0.112561 0.823013
-11.8629 -32.434 19.7514 -0.55672 0.100664 0.824543
-12.7682 -33.0473 19.2039 -0.556437 0.0948489 0.825435
-13.7836 -33.2481 18.5355 -0.557704 0.0851703 0.825654
-14.7749 -33.591 17.9017 -0.555419 0.0785301 0.827849
-15.7589 -33.8559 17.2723 -0.545162 0.0724986 0.83518
-16.6905 -34.2239 16.6953 -0.543791 0.06294 0.836857
-17.4113 -34.8305 16.2732 -0.543187 0.0613404 0.837366
-18.5287 -35.9682 15.6198 -0.542746 0.0458796 0.83863
-19.3673 -36.8092 15.1237 -0.535927 0.0416255 0.843233
-20.1817 -37.8435 14.6652 -0.526387 0.0420463 0.849198
-20.7462 -38.9327 14.3764 -0.513612 0.0441992 0.856878
-21.0575 -39.9915 14.2434 -0.505167 0.0436024 0.861912
-21.1839 -41.1132 14.2242 -0.512614 0.0425947 0.857559
-20.9662 -42.279 14.4088 -0.512467 0.0395398 0.857796
-20.6147 -43.4587 14.6819 -0.524605 0.0433074 0.850244
-20.0501 -44.6169 15.0966 -0.538959 0.0473666 0.840998
-19.4848 -45.4632 15.5048 -0.546584 0.0487465 0.835926
-18.8838 -46.3121 15.9561 -0.554719 0.04628 0.830746
-17.9745 -47.3469 16.6383 -0.570743 0.049596 0.819626
-17.216 -48.1475 17.2147 -0.578606 0.0460254 0.81427
-16.3877 -48.9391 17.8507 -0.586316 0.039163 0.809123
-15.7125 -49.4708 18.368 -0.594488 0.0359566 0.803257
-14.7265 -50.0409 19.1324 -0.60549 0.0313625 0.795194
-13.691 -50.3601 19.9471 -0.618878 0.0293908 0.784894
-12.708 -50.4814 20.7445 -0.639389 0.0345285 0.768016
-11.8217 -50.693 21.5093 -0.652239 0.041466 0.756809
-10.6864 -50.7187 22.5198 -0.664743 0.0543005 0.745095
-9.68871 -50.7441 23.4178 -0.660285 0.0605963 0.748491
-8.73301 -50.8622 24.2546 -0.643597 0.0542424 0.763266
-7.76802 -50.8534 25.0343 -0.600732 0.0412599 0.797718
-6.7681 -50.9386 25.753 -0.554274 0.0157999 0.831148
-5.74333 -51.097 26.373 -0.482465 -0.0106227 0.875198
-4.71294 -51.0488 26.8947 -0.411072 -0.0215663 0.910184
-3.48504 -51.0328 27.3704 -0.317225 -0.0329888 0.947256
-2.30942 -51.0238 27.7122 -0.221379 -0.0426528 0.97384
-1.18244 -51.0238 27.9269 -0.123553 -0.0405294 0.991038
0.0152129 -51.1109 28.0404 -0.0675311 -0.0412651 0.99623
1.25912 -51.0419 28.0427 0.046363 -0.0325111 0.997364
2.51673 -51.0847 27.9012 0.162924 -0.0338383 0.985409
3.9652 -51.0539 27.5792 0.278751 -0.045388 0.958723
5.40089 -51.0003 27.0368 0.405594 -0.0263395 0.913642
6.82845 -50.8724 26.222 0.555454 0.0192455 0.830817
7.65073 -50.8247 25.6368 0.591894 0.0282577 0.805235
8.5434 -50.8187 24.9404 0.620753 0.0366332 0.783149
9.32943 -50.8078 24.2955 0.644091 0.0461745 0.763538
10.4931 -50.7586 23.3117 0.637482 0.0490906 0.768865
11.3053 -50.6887 22.6427 0.627988 0.052347 0.776434
12.2158 -50.638 21.9123 0.62364 0.0546191 0.7798
13.5075 -50.6759 20.8933 0.618481 0.0579535 0.78366
14.5452 -50.5004 20.0646 0.614004 0.0576117 0.787189
15.5519 -50.1099 19.2576 0.604234 0.0545394 0.794894
16.5316 -49.8909 18.5099 0.588874 0.0533747 0.806368
17.4414 -49.7414 17.8538 0.571467 0.0512671 0.818983
18.2836 -49.3731 17.2526 0.561344 0.0492814 0.826092
19.2219 -49.0723 16.6087 0.550478 0.0465821 0.833537
20.1218 -48.756 16.0059 0.540547 0.0436089 0.840175
21.2795 -48.2623 15.2472 0.531016 0.0397688 0.846423
22.3484 -47.6773 14.5581 0.52114 0.0373009 0.852648
23.1039 -47.0391 14.0731 0.516229 0.0358284 0.855694
24.0147 -46.0447 13.4926 0.50477 0.0345114 0.862553
24.7204 -45.0458 13.0429 0.498135 0.0349828 0.866376
25.2978 -43.9382 12.6712 0.490189 0.0336041 0.870949
25.7981 -42.612 12.3437 0.482828 0.0313878 0.87514
26.1948 -41.2066 12.0767 0.475832 0.0317576 0.878953
26.2803 -39.7156 11.9747 0.473531 0.034965 0.880081
26.0312 -38.1441 12.0414 0.470251 0.0397736 0.881632
25.4871 -36.9712 12.2794 0.474397 0.0426387 0.879274
24.7636 -35.8956 12.6199 0.479635 0.0440016 0.876363
24.0227 -35.1437 12.9925 0.487999 0.0451417 0.871676
22.9463 -34.2747 13.5532 0.493541 0.0454429 0.868534
21.7552 -33.5683 14.1969 0.497781 0.0458132 0.866092
20.611 -33.0066 14.828 0.502656 0.0482926 0.863131
19.4337 -32.6629 15.5008 0.510827 0.0566248 0.857808
18.4082 -32.3905 16.1003 0.522795 0.0628426 0.850131
17.3594 -32.444 16.7521 0.527273 0.0691542 0.846864
16.3789 -32.61 17.3854 0.535291 0.0723979 0.841556
15.5056 -32.9469 17.9745 0.541307 0.0780856 0.837185
14.5084 -33.2074 18.6458 0.543383 0.0848269 0.835177
13.6347 -33.5802 19.2626 0.555531 0.0990717 0.825531
12.709 -33.8564 19.9303 0.56487 0.106599 0.81823
11.5515 -33.7724 20.7368 0.583021 0.124786 0.802729
10.7093 -33.513 21.3194 0.594852 0.132432 0.792819
9.73549 -33.2034 22.0113 0.616439 0.143281 0.774164
8.84367 -32.4572 22.5794 0.625312 0.155379 0.764716
8.0293 -31.3699 23.0243 0.637378 0.15957 0.753763
7.3456 -29.9937 23.3065 0.642601 0.169846 0.747136
6.92497 -28.8605 23.412 0.637746 0.16299 0.752804
6.56686 -27.7935 23.4914 0.633061 0.14745 0.759929
6.28092 -26.7471 23.526 0.624286 0.132226 0.769658
5.93601 -25.4246 23.5878 0.602368 0.116506 0.78965
5.92329 -24.3575 23.4621 0.596434 0.0792029 0.798546
6.15501 -23.2549 23.1954 0.615929 0.0667178 0.78497
6.60971 -22.2529 22.7712 0.629753 0.0373812 0.775882
7.44977 -21.666 22.0613 0.613761 0.0427619 0.788253
8.23623 -21.4525 21.4464 0.591376 0.0538933 0.804209
9.24013 -21.5101 20.7569 0.554337 0.0581877 0.830137
10.0846 -21.9247 20.2383 0.544647 0.0595704 0.836541
11.2328 -22.4323 19.5589 0.528508 0.0722095 0.845846
12.2077 -22.7943 18.9889 0.522022 0.077346 0.849418
13.2069 -22.9868 18.3943 0.520066 0.0805056 0.850323
14.2435 -22.838 17.7467 0.520592 0.0782835 0.850209
15.67 -22.2551 16.8228 0.518177 0.0757027 0.851917
16.6668 -21.1871 16.1552 0.498833 0.0591777 0.864638
17.4354 -19.8991 15.6458 0.483686 0.0437994 0.874093
17.8287 -18.6871 15.3784 0.473443 0.037449 0.880008
18.2183 -17.3767 15.1202 0.46612 0.032725 0.884104
18.6644 -16.1666 14.8461 0.4602 0.0280784 0.887364
19.2567 -15.0583 14.5085 0.454457 0.0249429 0.890411
19.9528 -14.2436 14.1351 0.450476 0.0238166 0.89247
21.28 -13.5506 13.4589 0.441959 0.0204374 0.8968
22.22 -13.7244 13.0049 0.435898 0.0187742 0.899799
23.0887 -14.0772 12.5932 0.433405 0.018944 0.901
23.8761 -14.9128 12.2339 0.432109 0.0203751 0.901591
24.4844 -15.9723 11.9676 0.431292 0.0214592 0.901957
25.0671 -17.3007 11.7218 0.430677 0.0223986 0.902228
25.7576 -18.4328 11.4199 0.432894 0.0238498 0.901129
26.3622 -19.4919 11.1556 0.434824 0.0242294 0.900188
27.1147 -20.4236 10.8198 0.433444 0.0269715 0.900776
28.0046 -21.2278 10.4176 0.431632 0.0294256 0.901569
29.0286 -21.8889 9.95081 0.430821 0.0306729 0.901916
29.8959 -22.3793 9.55743 0.424356 0.0267827 0.905095
31.1491 -22.8367 8.98324 0.419456 0.0221473 0.907504
32.7254 -22.9943 8.26762 0.409196 0.0182576 0.912264
33.7547 -22.9211 7.81446 0.396572 0.0135618 0.917902
34.9448 -22.5035 7.30185 0.388383 0.0119053 0.921419
35.7294 -21.9467 6.97319 0.381267 0.00428277 0.924455
36.4744 -20.8216 6.66144 0.381208 0.00438857 0.924479
36.9119 -19.8007 6.47355 0.383322 0.00636635 0.92359
37.0586 -18.5449 6.40302 0.386954 0.00970673 0.922046
36.7936 -16.9092 6.49428 0.392865 0.0134611 0.919496
36.4135 -15.6898 6.6395 0.397417 0.0124008 0.917554
35.9132 -14.4287 6.83979 0.40016 0.0100652 0.916389
35.4591 -13.24 7.02636 0.399867 0.00919681 0.916527
35.0659 -11.8057 7.18707 0.399601 0.0066646 0.916665
34.8104 -10.5432 7.29117 0.397918 0.00498739 0.917407
34.6257 -9.30891 7.36502 0.395988 0.00422383 0.918245
34.6292 -8.031 7.35719 0.394878 0.00446705 0.918722
34.7476 -6.73126 7.29845 0.393537 0.00562178 0.919291
34.989 -5.2745 7.18519 0.392044 0.00694954 0.91992
35.187 -4.13657 7.0922 0.390883 0.00747361 0.92041
35.5913 -3.06436 6.91549 0.386968 0.0035569 0.922084
36.0561 -1.97322 6.71916 0.384352 0.00113878 0.923186
36.5447 -0.483973 6.51647 0.385695 -4.35574e-05 0.922626
37.0215 0.840385 6.31791 0.389205 -0.000339061 0.921148
37.1938 2.29432 6.24631 0.392854 -0.00186777 0.919598
36.8509 4.03063 6.40006 0.393389 -0.00424303 0.919361
36.2499 5.257 6.66261 0.390109 -0.00438633 0.920757
35.4667 6.48324 6.99723 0.389097 -0.00286313 0.921192
34.7064 7.75517 7.32266 0.391737 -0.00384347 0.920065
34.0569 9.39697 7.61519 0.398149 -0.00945932 0.917263
33.9208 10.9773 7.6982 0.4062 -0.0168046 0.913621
34.117 12.2116 7.6357 0.409728 -0.0206282 0.911972
34.3352 13.7797 7.57504 0.412804 -0.0210255 0.910575
34.5235 15.4875 7.5273 0.415804 -0.0192101 0.909249
34.3711 17.1633 7.63067 0.417367 -0.0181749 0.908556
33.9673 18.4066 7.84048 0.418135 -0.0161484 0.908241
33.0482 19.4832 8.28184 0.417869 -0.0154673 0.908375
32.2476 19.9884 8.66032 0.420345 -0.0164356 0.907216
30.7906 20.355 9.34769 0.426473 -0.0208579 0.904259
29.3993 20.4136 10.0139 0.435296 -0.0267015 0.899891
28.3906 20.2198 10.4992 0.443049 -0.0316692 0.895937
27.2119 19.7356 11.0667 0.446133 -0.0342032 0.894311
26.0798 19.0115 11.6045 0.448278 -0.036917 0.89313
25.0791 18.2186 12.0758 0.451201 -0.0396594 0.891539
24.2229 17.4608 12.4769 0.456377 -0.0421925 0.888786
23.4784 16.7326 12.8237 0.455856 -0.0422604 0.88905
21.9311 15.8468 13.5793 0.459588 -0.0479988 0.886833
20.7059 15.8151 14.2199 0.465224 -0.0546404 0.883505
19.8249 15.9453 14.693 0.465816 -0.055248 0.883155
18.832 16.6787 15.2677 0.470831 -0.0580766 0.880307
18.3044 17.6671 15.6183 0.475334 -0.061814 0.877623
17.9637 18.8388 15.8885 0.4795 -0.064643 0.875154
17.5218 20.2249 16.2407 0.481843 -0.072063 0.873288
16.9846 21.6136 16.6572 0.484829 -0.0769161 0.871218
16.2807 22.6191 17.1429 0.489062 -0.0819864 0.868382
15.4739 23.3238 17.669 0.495503 -0.0875513 0.864168
14.6932 23.7179 18.1632 0.507247 -0.0954956 0.856456
13.7406 24.1637 18.7916 0.528209 -0.104249 0.842633
12.8326 24.4919 19.4128 0.539257 -0.110025 0.83487
11.6562 25.1193 20.3039 0.560084 -0.123245 0.819215
10.9433 26.2028 21.0022 0.593685 -0.143753 0.791588
10.8265 27.7104 21.3893 0.608119 -0.16004 0.777494
11.2766 28.9979 21.3286 0.597251 -0.17719 0.782219
12.0598 29.9358 20.9563 0.585089 -0.170176 0.792903
12.8959 30.8778 20.5344 0.593893 -0.158149 0.788773
14.2289 31.5701 19.6745 0.590547 -0.137924 0.795044
15.2618 32.264 19.0291 0.577978 -0.11863 0.807375
16.2078 32.967 18.444 0.575836 -0.103216 0.810997
17.2182 33.94 17.8435 0.56998 -0.0916803 0.816488
17.9454 34.8114 17.4288 0.570179 -0.0781299 0.81778
18.6274 35.6677 17.0406 0.560531 -0.0732936 0.824879
19.352 36.7027 16.6422 0.551218 -0.0705818 0.83137
20.0457 37.5266 16.2493 0.54784 -0.0634839 0.834164
20.6147 38.7553 15.9689 0.544332 -0.0569109 0.836933
21.1504 40.1302 15.7109 0.541937 -0.0509354 0.838872
21.4469 41.2603 15.5846 0.544509 -0.0491102 0.837303
21.448 42.8306 15.6722 0.545942 -0.042136 0.836752
21.1745 44.0405 15.9218 0.558202 -0.0437121 0.82853
20.6892 44.9481 16.2981 0.569496 -0.0466723 0.820634
19.8622 46.2317 16.9579 0.582502 -0.0512829 0.811172
19.0805 47.1432 17.5876 0.59559 -0.0536312 0.801448
18.1977 48.0344 18.3161 0.609219 -0.0547095 0.791063
17.2238 48.8764 19.1428 0.623143 -0.0572628 0.779971
16.353 49.3363 19.8934 0.639021 -0.0601865 0.766794
15.5162 49.7873 20.6439 0.650509 -0.0642605 0.75677
14.6498 50.1215 21.4246 0.654898 -0.0637197 0.753024
13.735 50.3717 22.242 0.654328 -0.0581244 0.753953
12.7208 50.5308 23.1296 0.652038 -0.0475818 0.756651
11.8444 50.5906 23.8777 0.65148 -0.0399511 0.75758
10.5928 50.771 24.9451 0.634273 -0.0170376 0.772832
9.53298 50.8112 25.7999 0.610579 -0.00114508 0.791563
8.52318 50.8203 26.5409 0.594212 0.00950336 0.804236
7.16217 50.903 27.4221 0.513751 0.0172074 0.857301
5.96736 50.969 28.0517 0.438907 0.0286023 0.897743
4.78764 51.0428 28.5558 0.363795 0.0462431 0.930115
3.7228 51.1045 28.9087 0.269028 0.0719099 0.960206
2.23077 51.1682 29.224 0.165757 0.0730563 0.983379
0.947711 51.2095 29.3434 0.0618179 0.0850045 0.994457
-0.410847 51.1319 29.3191 -0.0924929 0.0815519 0.99136
-1.50689 51.1829 29.1628 -0.140404 0.076439 0.98712
-2.66017 51.1081 28.9179 -0.246744 0.0804692 0.965107
-3.76072 51.1721 28.5869 -0.326908 0.0656113 0.942077
-4.79579 51.1214 28.1955 -0.390203 0.0610075 0.917823
-5.85658 51.027 27.677 -0.47384 0.0453303 0.879108
-7.09154 50.9546 26.9498 -0.542257 0.0346194 0.839355
-8.2035 50.8958 26.1819 -0.596676 0.0201656 0.802173
-9.25916 50.845 25.3552 -0.634814 -0.00478346 0.77265
-10.34 50.7632 24.4411 -0.655157 -0.0306362 0.75484
-11.5689 50.6597 23.3502 -0.665164 -0.0515222 0.744879
-12.8382 50.5872 22.1974 -0.670648 -0.0676936 0.738675
-13.8307 50.5083 21.2926 -0.667342 -0.0711767 0.741336
-14.8802 50.4201 20.3522 -0.659218 -0.0684017 0.748834
-15.9547 50.2864 19.4114 -0.648101 -0.0672751 0.758577
-17.2902 50.2004 18.2821 -0.635437 -0.0619227 0.769635
-18.2541 49.9195 17.476 -0.624441 -0.0592818 0.778794
-19.0177 49.5524 16.8434 -0.614693 -0.051511 0.787017
-19.6427 48.9368 16.325 -0.602863 -0.0509451 0.796193
-20.1692 47.9098 15.8732 -0.585034 -0.0439947 0.809777
-20.6086 46.7959 15.4939 -0.571487 -0.0499531 0.819066
-20.9437 45.457 15.1763 -0.560693 -0.0539792 0.826213
-20.9885 44.1139 15.06 -0.556043 -0.0569302 0.829195
-20.8795 42.9703 15.0502 -0.558601 -0.0580985 0.827391
-20.5424 41.7665 15.1911 -0.552893 -0.0601336 0.831075
-20.1068 40.5671 15.3942 -0.55635 -0.0630253 0.82855
-19.2787 39.3044 15.8549 -0.564174 -0.0654467 0.823028
-18.5789 38.4545 16.2696 -0.569507 -0.069814 0.819017
-17.9925 37.6313 16.6067 -0.573687 -0.070609 0.816008
-17.1169 36.7095 17.141 -0.574491 -0.0790357 0.814679
-16.323 35.8538 17.6172 -0.575596 -0.0876746 0.812998
-15.4594 35.0174 18.1353 -0.5798 -0.0995188 0.808623
-14.7164 34.3241 18.5734 -0.581915 -0.105239 0.806387
-13.7296 33.4379 19.1667 -0.58802 -0.116156 0.800444
-12.858 32.7909 19.717 -0.592642 -0.122298 0.79612
-11.9921 32.1176 20.2643 -0.607436 -0.132028 0.783314
-11.0877 31.5397 20.8639 -0.618772 -0.138718 0.773086
-10.1504 30.9083 21.5045 -0.629124 -0.149775 0.762666
-9.2458 30.1809 22.1175 -0.647712 -0.154893 0.745757
-8.51737 29.4125 22.5958 -0.652696 -0.170815 0.738103
-7.85627 28.2325 22.8998 -0.645587 -0.177601 0.742717
-7.42434 26.9496 22.9758 -0.637015 -0.171939 0.751406
-7.3455 25.364 22.7329 -0.623486 -0.143491 0.768462
-7.35432 25.2345 22.7027 -0.606119 -0.116128 0.786827
-8.13411 25.5864 22.1497 -0.610915 -0.126718 0.78129
-8.14647 26.7905 22.3496 -0.623283 -0.143622 0.768526
-8.50529 27.8778 22.2704 -0.635373 -0.152069 0.75706
-9.10024 28.8983 21.9824 -0.638523 -0.153752 0.754082
-9.79187 29.5551 21.5394 -0.630158 -0.152946 0.761229
-10.544 30.2057 21.0563 -0.613011 -0.147095 0.776217
-11.5042 30.8076 20.4196 -0.597754 -0.136619 0.789919
-12.6599 31.825 19.7172 -0.594085 -0.126596 0.794363
-13.7983 32.4697 18.9759 -0.581656 -0.1182 0.804787
-14.8074 33.2503 18.3626 -0.574623 -0.112355 0.810648
-15.7782 34.1709 17.801 -0.570297 -0.102282 0.81503
-16.7066 35.1419 17.2672 -0.570142 -0.0908889 0.8165
-17.2671 35.9267 16.9569 -0.572969 -0.0819754 0.815467
-18.5864 36.9666 16.1337 -0.569847 -0.0739517 0.818416
-19.0323 38.0092 15.9163 -0.565517 -0.0730043 0.821479
-19.9882 38.7143 15.3286 -0.558484 -0.0659968 0.826885
-20.7967 40.3362 14.9141 -0.550043 -0.0629687 0.832757
-21.1921 41.759 14.7583 -0.552893 -0.0601336 0.831075
-21.7773 42.9592 14.4593 -0.548289 -0.0576057 0.834299
-21.7731 44.1602 14.5419 -0.54707 -0.0546229 0.835302
-21.5437 45.6227 14.7855 -0.552379 -0.0504868 0.832058
-21.2802 47.1777 15.0541 -0.560755 -0.0419377 0.826886
-20.6314 48.4766 15.5701 -0.585034 -0.0439947 0.809777
-20.2188 49.7437 15.9377 -0.598848 -0.0431445 0.799657
-19.3688 50.2258 16.6132 -0.614693 -0.051511 0.787017
-18.6019 50.8864 17.2674 -0.62506 -0.0549157 0.778621
-17.4741 51.0565 18.1987 -0.634588 -0.0596099 0.770534
-16.6226 51.2457 18.9244 -0.643366 -0.0622852 0.763009
-15.498 51.1877 19.88 -0.652579 -0.0651272 0.754901
-14.7453 51.3464 20.5543 -0.660945 -0.0668788 0.74744
-13.7864 51.4078 21.4172 -0.666171 -0.0662888 0.742847
-12.7917 51.4451 22.3178 -0.666622 -0.0613373 0.742852
-11.8717 51.3979 23.139 -0.664071 -0.0570958 0.745475
-10.9406 51.5883 23.9593 -0.647257 -0.0271077 0.761772
-9.90843 51.7221 24.8281 -0.631412 -0.00646103 0.77541
-8.86115 51.79 25.6625 -0.605085 0.0158471 0.795997
-7.76976 51.8377 26.4608 -0.562629 0.0346214 0.825882
-6.6226 51.917 27.1923 -0.505559 0.0495577 0.861212
-5.48532 51.9556 27.8074 -0.43786 0.072119 0.896035
-4.53125 51.9706 28.2366 -0.355237 0.095477 0.929695
-2.66328 51.8115 28.8573 -0.287861 0.0998062 0.952457
-1.58552 52.2121 29.0404 -0.176081 0.103827 0.978541
-0.474192 51.883 29.2461 -0.14742 0.110191 0.982902
0.83258 52.2542 29.2584 0.0142399 0.0956071 0.99419
2.07999 52.1382 29.1685 0.134085 0.0985263 0.985143
3.40076 52.0057 28.927 0.247337 0.0965517 0.963171
4.79188 51.9399 28.5056 0.344115 0.0696833 0.935252
6.16607 51.9464 27.9255 0.428092 0.0333128 0.902304
7.45161 51.9311 27.2361 0.510506 0.00986422 0.859284
8.71752 51.9076 26.4048 0.577622 0.000996402 0.816027
9.8366 51.7639 25.5666 0.615382 -0.00336387 0.788097
10.8689 51.6115 24.7374 0.633454 -0.0175241 0.773469
12.1438 51.6105 23.6801 0.640856 -0.0352441 0.766782
13.2702 51.4544 22.7203 0.646449 -0.0496517 0.761295
14.2916 51.2238 21.8273 0.651246 -0.0596458 0.756502
15.1989 50.9138 21.0157 0.652071 -0.0643032 0.755426
16.036 50.5143 20.2604 0.645371 -0.0642835 0.761152
16.814 49.9196 19.5549 0.639021 -0.0601865 0.766794
17.976 49.5778 18.5972 0.620591 -0.0571132 0.782038
18.7979 48.7953 17.9104 0.604365 -0.0515223 0.795039
19.6016 47.9391 17.2566 0.590568 -0.0496135 0.805461
20.347 47.0477 16.6626 0.579239 -0.0472843 0.813785
21.0349 46.0379 16.1204 0.567719 -0.043313 0.822079
21.4918 44.8169 15.7426 0.561911 -0.0420699 0.826115
22.1891 43.7653 15.2303 0.546716 -0.039236 0.836397
22.1228 42.7185 15.2263 0.545942 -0.042136 0.836752
22.32 41.2078 15.0212 0.539595 -0.0446246 0.840736
21.8855 40.2533 15.2453 0.539144 -0.0507473 0.840681
21.5545 39.077 15.3846 0.538728 -0.0559531 0.840619
20.9706 37.6389 15.6572 0.540559 -0.0637547 0.838882
19.9544 36.419 16.2184 0.54639 -0.0689781 0.834661
19.2535 35.0934 16.5666 0.552213 -0.0783887 0.830006
18.6175 34.1776 16.9067 0.55885 -0.0830666 0.825085
17.9872 33.353 17.2508 0.565759 -0.0875704 0.819895
17.1097 32.8986 17.8024 0.56998 -0.0916803 0.816488
16.3191 32.0054 18.2437 0.568805 -0.110058 0.815056
15.2418 31.4228 18.9199 0.577978 -0.11863 0.807375
14.3182 30.5751 19.4386 0.578085 -0.137579 0.80429
13.2747 30.1796 20.1152 0.570016 -0.16067 0.805769
12.4632 29.3096 20.5242 0.585089 -0.170176 0.792903
11.8471 28.4876 20.7942 0.585269 -0.172685 0.792216
11.576 27.4229 20.772 0.58932 -0.161753 0.791534
