-2.87718 42.8435 76.4024 -0.158879 -0.0358957 0.986645
-1.66041 43.3598 76.6138 -0.111957 -0.0503639 0.991431
-0.628073 43.8866 76.6892 -0.0143298 -0.0330133 0.99934
0.892471 44.0026 76.7076 0.0311532 -0.0202351 0.998489
1.22051 43.3075 76.6635 0.0855111 -0.0584364 0.993818
0.183502 43.2715 76.6782 -0.0105576 -0.0355502 0.999299
-0.872035 42.652 76.62 -0.0702933 -0.07437 0.994749
-2.00841 42.598 76.5335 -0.115973 -0.0548886 0.990604
-2.17145 41.7883 76.4647 -0.0953093 -0.0686159 0.992731
-3.15579 41.5757 76.2884 -0.175716 -0.0595141 0.98264
-4.34387 41.5467 76.0732 -0.192522 -0.0740928 0.978253
-4.08372 42.54 76.17 -0.211858 -0.0335974 0.976038
-3.31978 43.3288 76.3464 -0.171 -0.0405345 0.984388
-2.20938 43.9085 76.5466 -0.150684 -0.0407767 0.987693
-0.503961 44.6789 76.7133 -0.00592896 -0.0378947 0.99919
0.584467 44.8683 76.7332 0.0278023 -0.0167862 0.998552
1.71134 44.5043 76.6537 0.0708624 -0.00402787 0.997476
2.51325 43.8963 76.5364 0.118301 -0.0521662 0.991607
2.52347 42.889 76.4893 0.119762 -0.0391299 0.992031
1.52027 42.6325 76.5946 0.0527263 -0.0852338 0.994961
0.104975 42.3026 76.6385 0.017475 -0.0624427 0.997124
-1.01762 42.001 76.5608 -0.0684954 -0.0632454 0.995573
-1.24276 41.9466 76.5423 -0.0732189 -0.0537375 0.995867
-0.761952 41.3456 76.5445 -0.0702841 -0.0527326 0.996129
-2.31545 41.0176 76.3824 -0.116606 -0.0832205 0.989685
-3.72053 40.8027 76.1395 -0.192262 -0.0743721 0.978297
-4.74855 40.7498 75.9146 -0.251886 -0.0711391 0.963967
-6.04418 41.2595 75.541 -0.296686 -0.0586748 0.953167
-5.45924 42.4041 75.796 -0.296209 -0.0599835 0.953237
-4.45363 43.2659 76.0917 -0.244103 -0.0197234 0.969548
-3.53282 43.966 76.337 -0.171943 -0.0456394 0.983984
-2.32066 44.6882 76.5695 -0.154231 -0.0489282 0.986809
-1.42919 45.121 76.7211 -0.144724 -0.0447081 0.988461
0.0674916 45.5548 76.7532 0.00113272 -0.0531846 0.998564
1.39317 45.5012 76.696 0.0599984 -0.0758407 0.995303
2.38768 44.9643 76.6058 0.0957372 -0.0265668 0.994516
3.4315 44.0409 76.398 0.177354 -0.0336949 0.98357
4.04015 43.252 76.2196 0.215686 -0.0720211 0.973803
3.49726 42.4681 76.2741 0.204194 -0.0824438 0.97544
2.32041 42.1084 76.484 0.159556 -0.0599198 0.984314
1.08104 41.8291 76.5529 0.05619 -0.0300427 0.997968
-0.408217 41.433 76.5732 -0.0432351 -0.0651669 0.996528
-0.341289 40.7301 76.5178 -0.0185147 -0.0816025 0.996493
0.897143 41.055 76.5394 0.055523 -0.0311475 0.997971
2.53196 41.4558 76.4267 0.149121 -0.0292393 0.987065
3.6743 41.6754 76.2101 0.18187 0.0055838 0.983306
4.98974 41.7367 75.9056 0.276956 -0.0205275 0.960482
5.95857 41.6535 75.6087 0.297946 -0.00770593 0.954528
7.3485 41.6274 75.1111 0.347857 -0.028796 0.937105
8.27602 41.199 74.7493 0.363141 -0.0402598 0.930704
7.49641 41.7498 75.0586 0.357354 -0.0138627 0.933865
6.53695 42.3087 75.434 0.330331 -0.0329142 0.942556
5.54634 42.9546 75.765 0.291203 -0.0362774 0.955973
4.68654 43.7417 76.0998 0.321006 -0.0666392 0.944724
3.61987 44.9154 76.3931 0.180093 -0.0279744 0.98324
2.30643 45.9192 76.6687 0.127132 -0.0534682 0.988105
1.29036 46.3473 76.7668 0.0471487 -0.065344 0.996501
0.163016 46.358 76.8009 0.0145102 -0.055038 0.998258
-1.46289 45.8934 76.7259 -0.0464992 -0.0317123 0.997607
-2.6413 45.3479 76.5492 -0.155561 -0.0436397 0.986849
-3.6965 44.7002 76.338 -0.1823 -0.0440717 0.982253
-4.86897 43.8694 76.0196 -0.238023 -0.0825483 0.967738
-5.70408 43.2073 75.7695 -0.273357 -0.0384716 0.960618
-6.50559 42.4889 75.4613 -0.32887 -0.0484866 0.94313
-6.94162 41.5327 75.2605 -0.339467 -0.0590846 0.938625
-6.17239 40.2548 75.4322 -0.317798 -0.0772411 0.945007
-4.99877 39.9862 75.7919 -0.253309 -0.0720948 0.963513
-4.0161 40.0508 76.0088 -0.208391 -0.0873355 0.974138
-3.0143 40.1799 76.2275 -0.147989 -0.0729767 0.985807
-1.97502 40.3558 76.3673 -0.115726 -0.0829605 0.98981
-0.852582 40.5994 76.4975 -0.0455393 -0.0677849 0.996201
-0.83235 39.8742 76.4297 -0.0163767 -0.105867 0.994243
0.440375 40.2088 76.489 -0.0174721 -0.0950771 0.995233
1.98864 40.6094 76.4363 0.106805 -0.0597101 0.992475
3.02954 40.858 76.3351 0.145729 -0.0247653 0.987827
4.28312 41.02 76.0754 0.262891 -0.0259409 0.964474
5.62983 40.9485 75.6889 0.290904 -0.0345588 0.95612
6.84878 40.7765 75.2696 0.338484 -0.0334595 0.94034
8.31987 40.0056 74.6622 0.372935 -0.054765 0.92624
9.36599 39.0436 74.1495 0.430513 -0.0300804 0.902047
10.0278 38.3403 73.8072 0.433742 -0.0332218 0.90039
10.9255 37.3249 73.2737 0.474315 -0.0666644 0.877828
12.1615 37.3603 72.5418 0.53839 0.00229111 0.842646
12.1017 38.8261 72.5941 0.54985 -0.0260538 0.83478
11.515 39.6803 73.0198 0.550585 -0.0399871 0.833819
10.4432 40.6406 73.6497 0.497263 -0.00508873 0.867573
9.55499 41.2322 74.1387 0.441628 -0.0673168 0.894668
8.17318 42.2108 74.8064 0.370466 -0.012165 0.928668
7.29174 42.6686 75.1492 0.355863 -0.0128366 0.93445
6.46758 43.1753 75.4854 0.364791 -0.0267453 0.930705
5.41124 44.043 75.8737 0.322339 -0.0690817 0.9441
4.70633 44.8616 76.1661 0.304076 -0.0307725 0.951719
3.71101 45.8268 76.3963 0.179463 -0.0211043 0.983538
2.72375 46.5512 76.6092 0.191585 -0.034054 0.980885
1.31212 47.1057 76.8044 0.0325891 -0.0372915 0.998687
-0.109632 47.0803 76.842 0.01082 -0.0523933 0.99845
-1.35583 46.7121 76.7839 -0.0599481 -0.0356693 0.997295
-2.89639 46.0412 76.5445 -0.158602 -0.0596686 0.985478
-3.81573 45.4971 76.3533 -0.179109 -0.0439702 0.982839
-5.18032 44.5426 76.0001 -0.235129 -0.0791482 0.968735
-6.04198 43.8871 75.6947 -0.31648 -0.042675 0.947636
-6.87283 43.1796 75.372 -0.324049 -0.0596563 0.944157
-7.61074 42.2705 75.0639 -0.340409 -0.0575552 0.938401
-7.73797 41.0389 74.925 -0.350548 -0.0709103 0.933856
-7.23895 40.0193 75.0426 -0.352036 -0.0643929 0.933769
-6.30714 39.4393 75.3199 -0.31771 -0.0776018 0.945007
-5.21759 39.2317 75.6573 -0.284379 -0.117464 0.951152
-3.72478 39.3713 76.0158 -0.210261 -0.0768897 0.974617
-2.70419 39.5097 76.225 -0.148906 -0.0725764 0.985665
-1.27363 39.7725 76.4126 -0.065755 -0.0787605 0.993061
-1.30966 39.0341 76.3346 -0.0147486 -0.104199 0.994447
0.0584027 39.3683 76.3911 -0.0174702 -0.107309 0.994072
1.51125 39.7498 76.4265 0.065716 -0.107201 0.990835
2.49337 40.0067 76.3439 0.105519 -0.0723139 0.991778
3.53089 40.2491 76.2459 0.145729 -0.0247653 0.987827
4.79553 40.3089 75.9115 0.276136 -0.0595348 0.959272
6.11459 40.1378 75.4942 0.317822 -0.0588149 0.946315
7.05327 39.9038 75.1624 0.346158 -0.0421453 0.936665
7.99854 39.3442 74.7585 0.379531 -0.033688 0.92456
9.0642 38.3629 74.2642 0.411941 -0.0431673 0.909994
9.84792 37.5156 73.856 0.429948 -0.0478151 0.901559
10.6416 36.6458 73.3952 0.473636 -0.0181716 0.880532
11.4853 36.1918 72.9268 0.503 -0.0205219 0.863985
12.5769 36.3775 72.289 0.520258 0.00758844 0.853456
13.0016 37.3658 71.9967 0.550223 0.0110566 0.834888
12.8207 38.7325 72.1081 0.563928 -0.0196521 0.825332
12.3165 39.7316 72.4934 0.553419 -0.0365791 0.832083
11.6856 40.5138 72.9387 0.495844 -0.0068968 0.86838
10.5529 41.4779 73.6193 0.497423 -0.037889 0.86663
9.56923 42.1751 74.1829 0.471127 -0.0432542 0.880801
8.64488 42.7538 74.6173 0.381974 -0.0100568 0.924118
7.21561 43.5229 75.2023 0.364873 -0.0265706 0.930678
6.37253 44.1365 75.5505 0.356792 -0.0472522 0.932728
5.62023 44.8676 75.8562 0.32205 -0.054699 0.945134
4.71881 45.8829 76.1716 0.282914 -0.000471593 0.959113
3.78792 46.7304 76.4073 0.189256 -0.045407 0.980814
2.85876 47.3464 76.6215 0.189291 -0.0596349 0.980108
1.52114 47.9163 76.8169 0.0680634 -0.00893328 0.996947
0.469672 47.969 76.8517 0.0304585 -0.02287 0.999273
-1.24662 47.5328 76.8008 -0.0605769 -0.0381539 0.997434
-2.54223 47.0289 76.6611 -0.157636 -0.0593626 0.985641
-3.54068 46.5293 76.4619 -0.171449 -0.0581623 0.983469
-4.84542 45.6792 76.1691 -0.238852 -0.0435199 0.968252
-6.18504 44.6987 75.6832 -0.31665 -0.0411822 0.947644
-6.99263 44.1004 75.3841 -0.323421 -0.0454326 0.945151
-8.14921 42.9011 74.8824 -0.41695 -0.0460768 0.907513
-8.54633 41.7069 74.6455 -0.434497 -0.0251705 0.900321
-8.2756 40.2299 74.666 -0.367163 -0.0758219 0.926834
-7.25069 39.0325 74.9693 -0.334822 -0.0713834 0.939381
-6.22744 38.5704 75.2517 -0.306807 -0.10973 0.945425
-5.22378 38.4957 75.5608 -0.262793 -0.120178 0.957338
-4.21914 38.5898 75.8474 -0.236157 -0.0981355 0.966129
-3.20969 38.7229 76.0615 -0.17379 -0.0920146 0.980475
-2.23213 38.8632 76.2476 -0.146452 -0.0738374 0.985914
-1.66642 38.9631 76.3217 -0.0675901 -0.0797091 0.992826
-1.7773 38.2143 76.2459 -0.0408836 -0.100526 0.993673
-2.96488 38.0407 76.0463 -0.178388 -0.0676741 0.98163
-4.63657 37.8155 75.645 -0.270274 -0.0658174 0.960531
-5.64621 37.7339 75.3603 -0.257961 -0.0437154 0.965072
-6.76225 37.8935 75.0534 -0.270986 -0.0357864 0.961917
-7.66375 38.4031 74.7615 -0.376365 -0.0589146 0.924584
-8.47734 39.0383 74.4688 -0.381252 -0.0878657 0.920285
-9.0025 39.8885 74.3314 -0.382121 -0.087696 0.919942
-9.26435 41.6647 74.2978 -0.453225 -0.0410088 0.890062
-9.06189 42.8135 74.4376 -0.435619 -0.058429 0.898232
-8.41143 43.751 74.8014 -0.409595 -0.0399763 0.911335
-7.59841 44.5445 75.177 -0.375884 -0.0290143 0.926212
-6.63504 45.2903 75.5566 -0.319315 -0.0401053 0.9468
-5.62427 46.0155 75.9262 -0.315522 -0.0385065 0.948137
-4.64174 46.7071 76.257 -0.292212 -0.021219 0.956116
-3.32497 47.4768 76.5519 -0.169008 -0.0548981 0.984085
-2.05477 48.0198 76.7687 -0.089593 -0.0257388 0.995205
-0.799662 48.4649 76.8638 -0.0277275 -0.0205265 0.998689
0.881818 48.7682 76.86 0.0155775 -0.016018 0.999566
1.91329 48.6199 76.7764 0.0971416 0.0029934 0.995252
3.4145 47.8824 76.5458 0.19051 -0.0567712 0.980039
4.57598 47.0423 76.2388 0.253067 -0.0437974 0.966408
5.28278 46.3146 76.0084 0.28209 -0.0367672 0.958683
5.97515 45.5288 75.7735 0.314006 -0.0305275 0.948651
6.85949 44.6143 75.4034 0.343787 -0.0603031 0.937065
7.65751 44.0669 75.0667 0.346879 -0.0660348 0.93558
8.60146 43.5683 74.6524 0.382754 -0.0435145 0.922538
9.49918 43.078 74.2765 0.376884 -0.021725 0.926004
10.4361 42.4829 73.7246 0.491305 -0.0426491 0.869903
11.208 41.8924 73.2561 0.504404 -0.0417794 0.862456
12.0479 41.1503 72.7376 0.526197 -0.023943 0.84918
12.8991 40.0376 72.1157 0.557324 -0.0377129 0.829438
13.3863 39.0133 71.7368 0.561609 -0.0385458 0.826503
13.6405 37.9557 71.557 0.553044 0.0164983 0.832901
13.5355 36.4431 71.6699 0.541788 0.0250253 0.840142
12.8255 35.5713 72.1387 0.503888 -0.00351811 0.863732
11.9256 35.3213 72.6535 0.493705 -0.00443592 0.869618
10.8961 35.615 73.2363 0.452393 -0.0426873 0.890129
9.8376 36.4277 73.7953 0.43043 -0.0545279 0.900969
8.72712 37.745 74.3734 0.39319 -0.0540236 0.917869
8.02774 38.4211 74.7124 0.384666 -0.0439106 0.921914
7.19631 39.0004 75.0657 0.316787 -0.0513033 0.947108
6.16457 39.3863 75.4314 0.316452 -0.0520091 0.947182
4.91094 39.5485 75.8308 0.277508 -0.0597342 0.958865
3.77096 39.5282 76.1408 0.199447 -0.102788 0.972648
2.79515 39.3468 76.2624 0.12826 -0.0951413 0.9867
0.847252 38.8512 76.332 0.0208866 -0.118951 0.9926
-0.354692 38.533 76.2954 -0.0138067 -0.0946759 0.995363
-1.03606 38.3634 76.2712 -0.0159946 -0.084858 0.996264
-0.836386 37.678 76.2155 -0.0150482 -0.0844024 0.996318
0.341918 37.9743 76.2573 -0.000476752 -0.077764 0.99686
2.09267 38.3876 76.26 0.038123 -0.0864833 0.995149
3.06348 38.6578 76.1416 0.14751 -0.113516 0.982512
4.12383 38.792 75.9767 0.258462 -0.094095 0.961427
5.39704 38.7902 75.6324 0.255561 -0.0846603 0.96303
6.55944 38.4999 75.2516 0.31228 -0.0594339 0.948088
7.4803 37.9733 74.9141 0.313288 -0.0673378 0.947258
8.19621 37.3139 74.5769 0.394563 -0.0495963 0.91753
9.22698 36.1034 74.0567 0.400906 -0.0643111 0.913853
10.1465 35.1534 73.5635 0.429517 -0.0382212 0.902043
11.3963 34.603 72.9346 0.459578 -0.038635 0.887296
12.5167 34.5505 72.3129 0.500413 -0.00746333 0.865724
13.4778 35.0518 71.7485 0.50985 -0.00636469 0.86024
14.0353 35.7933 71.3679 0.541447 0.0269493 0.840303
14.3187 36.8026 71.1537 0.542886 0.026473 0.839387
14.2831 37.939 71.1401 0.559035 0.0308912 0.828342
13.8932 39.468 71.3957 0.595708 -0.0106163 0.80313
13.3411 40.5563 71.8198 0.589275 -0.0117868 0.807807
12.6259 41.5208 72.3412 0.582008 -0.00914929 0.813125
11.6962 42.4218 72.9667 0.542753 0.00187917 0.839889
10.4693 43.3574 73.7551 0.509683 -0.0317824 0.859775
9.54294 43.9091 74.2771 0.383693 -0.0439131 0.922096
8.41676 44.4624 74.795 0.389385 -0.0674392 0.918603
7.43478 45.0364 75.2198 0.343702 -0.0616159 0.937023
6.28732 46.2583 75.7095 0.310748 -0.0500297 0.948648
5.55739 47.0836 75.9571 0.28209 -0.0367672 0.958683
4.82397 47.8052 76.2058 0.2635 -0.0420363 0.963554
3.98352 48.4235 76.4383 0.240271 -0.0275134 0.970306
3.10454 48.9769 76.663 0.135854 -0.0400977 0.988987
1.71958 49.4456 76.8289 0.0922309 -0.0623979 0.993776
0.59213 49.5399 76.9036 0.0183265 -0.0571532 0.997651
-0.944507 49.1972 76.8656 0.000974132 -0.0264044 0.999331
-2.03061 48.8102 76.7782 -0.113494 -0.00460892 0.993527
-3.67465 48.1426 76.5257 -0.168818 -0.0486703 0.984444
-4.7872 47.4846 76.2292 -0.290155 -0.0280249 0.956537
-5.68661 46.8686 75.94 -0.304296 -0.0304379 0.951983
-6.99163 45.9604 75.465 -0.33659 -0.0513978 0.939997
-7.75962 45.3449 75.1374 -0.374155 -0.0308934 0.926849
-8.96789 44.2499 74.565 -0.41831 -0.0367966 0.907559
-9.63773 43.3417 74.1777 -0.486943 -0.0300191 0.872918
-9.92019 42.2381 73.977 -0.494265 -0.0421465 0.86797
-9.9003 41.1099 73.9188 -0.476088 -0.0537205 0.877755
-9.73065 39.8504 73.9557 -0.472333 -0.0315348 0.880855
-8.86958 38.3698 74.262 -0.382211 -0.0565722 0.922342
-7.93103 37.6778 74.6047 -0.37329 -0.0640944 0.925498
-6.82441 37.0662 75.0082 -0.32161 -0.0477542 0.943958
-5.23457 37.0137 75.4264 -0.248839 -0.0538124 0.967049
-4.21851 37.1475 75.7169 -0.24079 -0.0791447 0.966788
-3.21391 37.2881 75.9489 -0.192807 -0.0829924 0.977519
-1.41909 37.5506 76.1912 -0.0648228 -0.116119 0.991118
-1.33563 37.5671 76.1986 -0.0399628 -0.0997937 0.993757
-0.909044 36.9258 76.1514 -0.0399628 -0.0997937 0.993757
-2.6464 36.6339 76.0047 -0.120755 -0.0929491 0.986409
-3.69769 36.5001 75.7679 -0.211963 -0.0938191 0.972764
-4.77338 36.3485 75.5077 -0.259039 -0.0592077 0.963975
-5.93205 36.1941 75.2011 -0.248538 -0.05478 0.967072
-6.97388 36.2872 74.8963 -0.353345 -0.0744154 0.932206
-8.2666 36.9921 74.4219 -0.373016 -0.0617818 0.925763
-9.24975 37.7059 74.0471 -0.42078 -0.0792237 0.903697
-10.1822 38.893 73.667 -0.487968 -0.03894 0.871988
-10.4934 40.406 73.562 -0.484673 -0.0344969 0.873968
-10.6084 41.5758 73.5425 -0.512404 -0.0303131 0.858209
-10.5168 42.868 73.6525 -0.511045 -0.0497917 0.858111
-10.0006 44.1254 74.0022 -0.486747 -0.0300943 0.873024
-9.25937 45.0358 74.4029 -0.515555 0.00328146 0.85685
-8.55812 45.6335 74.8228 -0.470564 -0.0238764 0.880162
-7.55884 46.4686 75.2812 -0.36083 -0.062751 0.93051
-6.73369 47.0517 75.5966 -0.318993 -0.0371043 0.947031
-5.42518 47.9352 76.0525 -0.29132 -0.0359614 0.955949
-4.12043 48.7537 76.4498 -0.256297 -0.0165423 0.966444
-2.56887 49.3897 76.7191 -0.115829 -0.0162072 0.993077
-1.58193 49.7515 76.8429 -0.097461 -0.0148155 0.994916
0.089871 50.2739 76.9368 -0.00348399 -0.0268971 0.999399
1.15888 50.2799 76.9031 0.0451523 -0.0327178 0.998442
2.39259 50.0804 76.8027 0.127562 -0.0348295 0.990406
3.47777 49.69 76.6102 0.204902 -0.0309561 0.977601
4.42572 49.0268 76.3452 0.243943 -0.0334421 0.969205
5.54407 48.1373 76.0101 0.281487 -0.045181 0.958501
6.31869 47.2902 75.7416 0.281948 -0.0422249 0.958493
7.02007 46.4669 75.4571 0.340894 -0.0611305 0.93811
7.96067 45.5242 75.0581 0.339476 -0.0567289 0.938901
9.08871 44.9553 74.5255 0.436006 -0.00486997 0.899929
9.93793 44.5384 74.1096 0.472401 -0.0166259 0.880269
11.2001 43.724 73.3354 0.509683 -0.0317824 0.859775
11.9116 43.1575 72.8369 0.554965 -0.0438441 0.830715
12.7701 42.3546 72.2499 0.583259 -0.0121467 0.812195
13.6185 41.3074 71.6275 0.589684 -0.00985755 0.807532
14.1955 40.3173 71.1819 0.596188 -0.0120886 0.80275
14.7706 38.7401 70.7651 0.57408 0.0053824 0.81878
14.9594 37.6743 70.6768 0.575151 0.0375459 0.817185
14.9533 36.6404 70.7205 0.588004 0.0357927 0.808005
14.6689 35.5162 70.9588 0.559554 0.0218691 0.828504
13.9593 34.4805 71.4591 0.525561 0.0103531 0.850324
13.137 33.9022 71.9408 0.507784 -0.0119798 0.861399
12.2171 33.6941 72.4731 0.472324 -0.022238 0.880956
11.3059 33.7818 72.9452 0.459775 -0.0392881 0.887166
9.67533 34.5642 73.7661 0.389837 -0.0386288 0.919235
8.81258 35.4789 74.1917 0.396887 -0.0619177 0.915758
8.2365 36.2492 74.4956 0.390626 -0.0642654 0.918297
7.29276 37.1929 74.9183 0.315378 -0.0714394 0.946273
5.86056 37.9958 75.443 0.307632 -0.0660096 0.949211
4.86696 38.1266 75.7183 0.247475 -0.0736597 0.966078
3.59735 38.0044 75.9865 0.154279 -0.0933574 0.983284
2.31686 37.6829 76.1731 0.110325 -0.0882457 0.988529
0.690875 37.3228 76.2063 0.000439846 -0.078107 0.996841
-0.787653 36.9528 76.1555 -0.0143325 -0.0838137 0.996378
-0.54067 36.2924 76.1155 -0.0250269 -0.0674928 0.997335
-2.00899 35.9677 76.0075 -0.0733307 -0.0627267 0.995333
-3.08159 35.8478 75.8427 -0.211002 -0.0866973 0.973632
-4.15482 35.6778 75.593 -0.197884 -0.0693522 0.977469
-5.33611 35.5213 75.3184 -0.256949 -0.04391 0.965427
-6.48682 35.4534 74.9933 -0.323625 -0.087975 0.942002
-8.15973 35.9908 74.4004 -0.378221 -0.0651954 0.923396
-9.52103 36.9605 73.8604 -0.420961 -0.042334 0.90609
-10.2504 37.6429 73.574 -0.457028 -0.0621707 0.886332
-10.7498 38.4728 73.3306 -0.490675 -0.0370533 0.870554
-11.0883 39.6153 73.1903 -0.510401 -0.0286141 0.8591
-11.2459 41.3213 73.1475 -0.528915 -0.0406254 0.847701
-11.2908 42.3844 73.1636 -0.511959 -0.0400944 0.858017
-10.9488 43.7897 73.4491 -0.550407 -0.0277613 0.832813
-10.3472 44.8424 73.7913 -0.486821 0.0271842 0.873068
-9.46276 45.8501 74.2791 -0.519047 -0.0234781 0.854043
-8.60055 46.5541 74.8141 -0.482001 -0.0149508 0.876042
-7.88704 47.171 75.2042 -0.414716 -0.0362324 0.906827
-6.71315 47.9437 75.649 -0.317918 -0.0542901 0.946563
-5.80609 48.5527 75.9595 -0.289653 -0.034229 0.956514
-4.67511 49.283 76.3102 -0.264333 -0.0210064 0.964197
-3.63071 49.7698 76.5891 -0.201681 0.00716079 0.978785
-2.39233 50.2295 76.7618 -0.114627 -0.0247988 0.993098
-1.2363 50.7397 76.8907 -0.0721552 -0.0217254 0.997071
-0.172289 51.0034 76.9496 0.00642617 -0.00324586 0.999931
0.975321 51.0302 76.9324 0.0302972 -0.0127645 0.999348
2.02313 50.9521 76.88 0.113532 -0.024591 0.991746
3.03967 50.7276 76.7039 0.171638 -0.0164442 0.985023
4.26061 50.0944 76.4292 0.247463 -0.0397682 0.96808
5.34476 49.2765 76.1146 0.312265 -0.0157363 0.949554
6.12088 48.5777 75.8355 0.332683 -0.00119888 0.943038
6.85763 47.7325 75.5763 0.360644 -0.0109237 0.932058
7.56072 46.863 75.2615 0.389524 -0.0165092 0.920868
8.34119 46.1421 74.9163 0.4149 -0.0298688 0.908912
9.25439 45.7017 74.4493 0.436764 -0.0226526 0.8991
10.1391 45.2633 74.0162 0.471416 -0.0187104 0.880764
11.1465 44.6034 73.3912 0.520338 -0.0281178 0.853454
12.0565 43.9558 72.7823 0.555607 -0.0385259 0.830531
12.7325 43.3506 72.2915 0.583426 -0.00727593 0.81213
13.4559 42.5838 71.7613 0.58262 -0.0135253 0.812632
14.3557 41.3195 71.0797 0.600369 -0.0102794 0.799654
14.8016 40.4899 70.7337 0.604262 -0.010741 0.796706
15.1805 39.586 70.4711 0.591575 0.0158376 0.805726
15.4756 38.583 70.272 0.574477 0.0219917 0.818079
15.5862 36.7101 70.2572 0.588929 0.0288974 0.807663
15.4409 35.6947 70.4196 0.586925 0.0475287 0.808244
15.0075 34.6316 70.7547 0.558753 0.0330874 0.828601
14.4099 33.9069 71.1875 0.530161 0.0154408 0.846955
13.701 33.3259 71.5988 0.509868 -0.0117763 0.860171
12.894 32.9638 72.0706 0.499569 -0.0225914 0.865874
11.9219 32.8934 72.6108 0.486249 -0.0288081 0.873345
11.0048 33.0536 73.0867 0.458184 -0.014889 0.888733
9.69388 33.619 73.696 0.359477 -0.0458459 0.931887
8.75047 34.3874 74.1132 0.364988 -0.0776882 0.927623
8.18429 35.1607 74.4131 0.364791 -0.0989681 0.925792
7.59901 35.9379 74.7261 0.332885 -0.078559 0.939339
6.55816 36.9408 75.1476 0.308683 -0.0617929 0.948986
5.02943 37.4023 75.6209 0.251583 -0.0723613 0.965126
3.41994 37.1978 75.9587 0.164031 -0.0704006 0.98394
2.05522 36.9207 76.1125 0.0637179 -0.0998274 0.992955
0.814175 36.6369 76.1537 0.0208187 -0.0788345 0.996045
-0.108562 36.3942 76.1282 -0.00997303 -0.0634101 0.997925
-0.076847 35.4909 76.0643 -0.0154464 -0.0843018 0.996221
-1.44459 35.2101 75.9967 -0.0264563 -0.0797096 0.996447
-3.09359 35.0932 75.7712 -0.172839 -0.100574 0.978956
-4.56295 34.8162 75.4735 -0.187558 -0.0511298 0.980907
-5.58793 34.7125 75.2143 -0.282286 -0.0729215 0.955714
-6.59561 34.6235 74.8724 -0.32323 -0.10837 0.939998
-7.64479 34.8548 74.5167 -0.337002 -0.106345 0.935436
-8.60485 35.3137 74.1654 -0.384707 -0.0667508 0.92062
-9.79409 36.1313 73.6946 -0.420974 -0.045288 0.905937
-10.4633 36.8247 73.4069 -0.464901 -0.0686044 0.881232
-11.2039 37.564 73.0169 -0.523663 -0.0621562 0.849651
-11.5607 38.4918 72.8613 -0.535504 -0.0524302 0.842799
-11.7552 39.7982 72.7765 -0.534817 -0.0148156 0.844821
-11.8434 41.0011 72.7585 -0.531328 -0.0402488 0.846208
-12.1215 42.3284 72.5966 -0.588944 0.00157235 0.808152
-11.5574 43.8757 73.0051 -0.589077 -0.00454557 0.808063
-11.2115 44.7855 73.2755 -0.553959 0.011358 0.831023
-10.2647 46.0055 73.8022 -0.516659 0.01734 0.855778
-9.40402 46.9261 74.3788 -0.520098 -0.0508907 0.852572
-8.59986 47.4996 74.8291 -0.471634 -0.00767404 0.881751
-7.73901 48.1427 75.2742 -0.444224 0.00264072 0.895898
-6.92126 48.7852 75.6277 -0.304736 -0.0455129 0.9512
-5.93278 49.3274 75.9478 -0.287647 -0.0305677 0.957246
-5.16451 49.9415 76.1922 -0.272202 -0.0225832 0.961941
-3.85044 50.5068 76.5374 -0.221025 -0.00198713 0.975158
-2.55537 50.9409 76.76 -0.139704 -0.00937466 0.989719
-1.77231 51.5851 76.8661 -0.0970882 -0.0301548 0.994757
-0.622414 51.6599 76.9479 -0.00240462 -0.0143641 0.999767
1.09735 51.8158 76.941 0.0296964 -0.0243216 0.999127
2.32562 51.6785 76.8634 0.113532 -0.024591 0.991746
3.6146 51.4117 76.6244 0.198098 -0.0179855 0.979561
4.60957 50.8919 76.3498 0.289199 -0.00718064 0.95723
5.4826 50.073 76.0783 0.291005 -0.00580884 0.956703
6.42196 49.3935 75.7353 0.336685 -0.0219299 0.941362
7.18255 48.5802 75.4597 0.362476 -0.00948443 0.931435
7.87145 47.6698 75.1464 0.389517 -0.0234957 0.92072
8.63952 46.9612 74.8061 0.389153 -0.0174064 0.921008
9.48989 46.3568 74.3617 0.441417 -0.0387956 0.896463
10.3806 46.0524 73.9014 0.501476 -0.0194182 0.863856
11.4888 45.3401 73.1968 0.547002 -0.000382345 0.837007
12.3275 44.6274 72.5962 0.585235 -0.00770907 0.810827
13.4566 43.5887 71.7759 0.581345 -0.00624046 0.813633
14.1753 42.8321 71.2442 0.600832 -0.0197612 0.799131
14.9691 41.4803 70.6195 0.602597 -0.0103262 0.797978
15.4533 40.5091 70.2365 0.613534 -0.00713605 0.789573
15.8907 39.3808 69.9377 0.605478 0.0288493 0.795338
16.1736 37.8778 69.7798 0.620085 0.0419283 0.783366
16.2053 36.6046 69.8118 0.587386 0.0385239 0.808351
16.1236 35.6105 69.9343 0.565804 0.0583856 0.82247
15.6095 34.3277 70.3668 0.558933 0.0426007 0.828112
15.0377 33.3643 70.7958 0.552294 0.0292256 0.833077
14.0524 32.6936 71.3864 0.504596 -0.00873551 0.863305
13.2481 32.2331 71.8465 0.487219 -0.0265925 0.872868
12.3775 32.0631 72.3298 0.487555 -0.0275602 0.872653
10.727 32.3624 73.1853 0.41746 -0.057132 0.906897
9.81463 32.5112 73.6123 0.376917 -0.0456446 0.924137
8.73406 33.4029 74.0421 0.344529 -0.060483 0.936695
7.94216 34.2838 74.4279 0.373592 -0.0765646 0.924424
6.94121 35.5395 74.9253 0.342911 -0.0864129 0.935319
6.12505 36.2374 75.2343 0.278749 -0.0608992 0.958368
4.83865 36.6044 75.6204 0.251724 -0.0595292 0.965945
3.82358 36.5675 75.8459 0.164626 -0.0707051 0.983819
2.7425 36.1469 75.9847 0.12786 -0.0927868 0.987125
1.58868 35.9616 76.0578 0.0541558 -0.0745421 0.995737
0.574443 35.7588 76.0872 0.0161371 -0.0844733 0.996078
9.21289 40.0357 74.2524 0.441467 -0.0324502 0.89669
10.4069 39.9307 73.6697 0.466698 -0.00891468 0.883587
10.9855 39.057 73.3355 0.522629 -0.0210187 0.85161
11.1195 38.0645 73.2232 0.509562 -0.0360097 0.858464
10.4426 38.8145 73.6196 0.440382 -0.0295317 0.897325
9.58775 39.6727 74.0587 0.432973 -0.022177 0.901134
9.40942 39.8259 74.1481 0.437062 -0.0272731 0.89899
