-0.944492 44.0241 77.8542 -0.0769305 -0.0435073 0.996087
-0.292951 43.3187 77.8731 -0.0290362 -0.0453982 0.997454
1.20986 43.4589 77.8529 0.0187848 -0.0476161 0.998687
1.40078 43.8091 77.868 0.0755044 -0.0537817 0.993648
0.536291 44.4138 77.9121 0.0118703 -0.055833 0.99837
-0.284404 44.1272 77.9098 -0.0298993 -0.0447556 0.997432
-0.275032 45.0238 77.9528 -0.0197317 -0.0496954 0.998194
1.34922 45.0382 77.9373 0.0711389 -0.0513834 0.994363
2.72609 44.5143 77.7157 0.145586 -0.0533142 0.987906
3.42613 43.7664 77.5597 0.187678 -0.0483646 0.981039
3.14096 43.1885 77.5857 0.165569 -0.0502566 0.984666
1.4361 42.7981 77.8157 0.0823716 -0.0468642 0.993513
-0.222316 42.6753 77.8423 0.0120371 -0.0608864 0.997977
-1.89802 42.7547 77.7175 -0.0822066 -0.0512882 0.995295
-3.1674 42.4718 77.5173 -0.15392 -0.0619352 0.986085
-4.4161 42.0929 77.2462 -0.21619 -0.0675977 0.974008
-4.20024 43.0654 77.3581 -0.213199 -0.0521755 0.975539
-3.33667 43.6062 77.5479 -0.153169 -0.0454431 0.987154
-1.92426 44.3812 77.8107 -0.11268 -0.0677821 0.990156
-0.82303 44.8712 77.9193 -0.0551935 -0.0618955 0.996445
-0.899187 45.6442 77.9539 -0.0472841 -0.0491235 0.997673
0.0911267 45.8618 77.9962 -0.0124323 -0.0445907 0.998696
1.28185 45.8652 77.9847 0.066106 -0.0502912 0.994934
2.46711 45.5234 77.8091 0.147593 -0.050468 0.987758
3.35364 45.0014 77.6337 0.190248 -0.0482722 0.980546
4.11714 44.263 77.4507 0.214749 -0.0540436 0.975021
4.99126 43.4876 77.2345 0.267636 -0.0193723 0.962172
4.83459 42.494 77.1994 0.207428 -0.0735585 0.975475
3.3267 42.3481 77.504 0.214669 -0.0570335 0.974756
2.32833 42.2275 77.6589 0.146801 -0.0446737 0.988156
0.786721 42.0315 77.7904 0.0142022 -0.0611692 0.997955
-0.264651 41.9638 77.7908 -0.0317164 -0.0737074 0.996111
-1.84106 41.9175 77.6791 -0.0759517 -0.0621369 0.995095
-2.865 41.7707 77.516 -0.159986 -0.0699176 0.98464
-4.11644 41.4524 77.2681 -0.21652 -0.0676929 0.973928
-5.47598 41.2554 76.9499 -0.272356 -0.064593 0.958444
-6.24259 41.7241 76.7126 -0.327013 -0.0545732 0.943443
-5.74313 42.9218 76.9453 -0.32186 -0.0475782 0.945591
-4.98041 43.5412 77.2091 -0.219428 -0.0508628 0.974243
-4.0804 44.0729 77.4269 -0.206311 -0.0412519 0.977616
-3.19363 44.5575 77.6134 -0.158161 -0.0526353 0.985965
-1.80887 45.2759 77.884 -0.113286 -0.0658934 0.990238
-1.52693 45.4043 77.9123 -0.0569645 -0.0612032 0.996377
-1.62532 46.1739 77.9539 -0.0928098 -0.0524052 0.992928
-2.56826 45.7305 77.7882 -0.161534 -0.0590988 0.985094
-3.48009 45.2557 77.6082 -0.168643 -0.0585228 0.983926
-4.35701 44.7903 77.4162 -0.184511 -0.074978 0.979966
-5.68532 43.9918 77.0428 -0.296867 -0.0790876 0.951616
-6.93384 42.7285 76.5331 -0.335533 -0.0780046 0.938162
-7.4091 41.4941 76.2826 -0.360056 -0.0482385 0.931683
-6.40223 40.4755 76.5834 -0.325345 -0.0575302 0.943844
-5.45255 40.4625 76.8967 -0.219243 -0.0723748 0.972982
-3.95895 40.7222 77.2526 -0.217969 -0.0698965 0.973446
-2.88147 40.9718 77.4618 -0.173746 -0.0504965 0.983495
-1.34689 41.1871 77.6675 -0.0570795 -0.0481232 0.997209
-0.228093 41.2332 77.7403 -0.0306133 -0.0695971 0.996415
0.781626 41.302 77.7384 0.00834666 -0.0731438 0.997284
2.38161 41.4775 77.6168 0.147595 -0.0451768 0.988015
3.76244 41.647 77.3759 0.225533 -0.0366247 0.973547
5.09067 41.7883 77.0913 0.261793 -0.0692403 0.960811
6.1493 41.8969 76.7414 0.317532 -0.0576259 0.946481
7.45914 41.6262 76.2679 0.353003 -0.0495512 0.934309
8.39204 41.235 75.8935 0.365025 -0.0643185 0.928584
9.27852 40.3458 75.424 0.443188 -0.0469592 0.895196
10.5093 39.2405 74.7752 0.470187 -0.0278405 0.881875
10.9862 39.3914 74.5096 0.501771 -0.0198402 0.864773
10.0193 40.6176 75.0582 0.466798 -0.034453 0.88369
9.45899 41.4378 75.3913 0.46725 -0.042122 0.883118
8.18338 42.1268 76.0109 0.363921 -0.0265249 0.931052
7.31248 42.612 76.3643 0.368383 -0.0353996 0.928936
6.48146 43.1852 76.7055 0.326256 -0.0495843 0.94398
5.7386 43.8202 76.9958 0.319407 -0.0358997 0.946808
4.89916 44.6192 77.2908 0.270532 -0.042845 0.960513
3.9754 45.4877 77.5369 0.194602 -0.0537139 0.979403
3.15372 46.0602 77.727 0.190643 -0.0497635 0.980397
2.14858 46.4823 77.9039 0.137593 -0.0396355 0.989609
1.1708 46.6727 78.0329 0.066106 -0.0502912 0.994934
-0.303679 46.5834 78.0285 -0.0178044 -0.0605241 0.997963
-1.27758 46.308 77.9773 -0.0411163 -0.0635154 0.997132
-1.35034 47.0976 78.0251 -0.0889923 -0.0478737 0.993488
-2.37127 46.6652 77.8643 -0.144849 -0.0368925 0.988766
-3.34618 46.1715 77.6853 -0.168102 -0.057739 0.984066
-4.28518 45.6856 77.4915 -0.173483 -0.0578774 0.983135
-5.18543 45.203 77.292 -0.237913 -0.0760298 0.966729
-6.31929 44.4857 76.8782 -0.311117 -0.0730476 0.947559
-7.36585 43.4396 76.4174 -0.370925 -0.0646195 0.926372
-8.04533 42.4176 76.0856 -0.359354 -0.0557008 0.931535
-8.23531 41.1466 75.9382 -0.375213 -0.0656333 0.924611
-7.31724 39.8769 76.2069 -0.35518 -0.0838542 0.930964
-5.93143 39.6387 76.6934 -0.332753 -0.0734083 0.939995
-4.75151 39.7848 77.0062 -0.223558 -0.0644654 0.972556
-2.98944 40.1651 77.4013 -0.179197 -0.0599269 0.981926
-1.95389 40.3784 77.5939 -0.114466 -0.0505792 0.990464
-0.843596 40.4654 77.6615 -0.0568135 -0.0457131 0.997335
0.36493 40.5422 77.6856 0.0205055 -0.0560847 0.997985
1.42271 40.6202 77.6813 0.00975721 -0.0746235 0.997164
2.43003 40.7347 77.5698 0.131923 -0.0695724 0.988815
4.0361 40.9369 77.2865 0.224677 -0.0366579 0.973743
5.12859 41.0345 77.0294 0.274752 -0.0590712 0.958963
6.53577 41.0011 76.5626 0.315132 -0.0530812 0.947562
7.72546 40.673 76.1169 0.361697 -0.0589103 0.930333
8.99477 39.678 75.531 0.409944 -0.0535881 0.909745
9.68851 39.046 75.1938 0.415184 -0.0221779 0.909343
10.6192 38.3443 74.6671 0.4798 -0.0473917 0.876091
11.4702 37.8811 74.1731 0.517912 -0.0358893 0.853605
12.279 38.1866 73.653 0.544569 -0.0166376 0.838551
12.0215 39.5583 73.8619 0.563424 -0.0179497 0.825896
11.5431 40.3973 74.1789 0.52624 0.00321262 0.850306
10.7888 41.2004 74.6391 0.512041 -0.0185348 0.858422
9.73945 42.086 75.2736 0.464093 -0.0324156 0.885107
8.91625 42.5817 75.7084 0.455783 -0.0211955 0.889838
8.06234 43.0669 76.0838 0.368928 -0.0337831 0.928782
7.2264 43.6112 76.4466 0.373981 -0.0428328 0.926447
6.40771 44.2474 76.7843 0.321155 -0.0334972 0.946324
5.64973 44.9578 77.0525 0.305023 -0.0365294 0.951623
4.73107 45.8162 77.3762 0.297184 -0.0503861 0.953139
3.93148 46.5058 77.597 0.204114 -0.0538982 0.977377
3.00206 46.9952 77.803 0.168251 -0.048982 0.984277
1.93081 47.3598 77.9589 0.12727 -0.0304567 0.991399
0.939622 47.4681 78.0812 0.0625703 -0.0410985 0.995487
-0.300032 47.3756 78.0652 -0.0141118 -0.0420798 0.999015
-0.939108 47.2333 78.0502 -0.0267269 -0.0536123 0.998057
-0.959979 48.0264 78.0788 -0.0492873 -0.0157527 0.997957
0.160308 48.2213 78.1028 -0.0151601 -0.0328974 0.999343
1.23748 48.2539 78.0742 0.0830493 -0.0173888 0.995602
2.26335 48.116 77.9412 0.127876 -0.0340904 0.991204
3.21559 47.7709 77.8101 0.149519 -0.0509355 0.986894
4.59087 46.9527 77.4875 0.205396 -0.0681859 0.976297
5.56497 46.0567 77.1347 0.297947 -0.0672308 0.952195
6.41891 45.2549 76.8203 0.327253 -0.0352291 0.943965
7.76324 44.168 76.2532 0.377974 -0.0343303 0.92518
8.66725 43.5875 75.8626 0.413768 -0.0345745 0.908865
9.49833 43.0946 75.4252 0.450591 -0.0339664 0.892083
10.2758 42.6104 75.0124 0.479934 -0.0361794 0.875975
11.1491 41.8981 74.4593 0.511097 -0.0431276 0.85844
12.0119 40.9577 73.8891 0.538979 -0.00792634 0.842164
12.559 40.05 73.5103 0.561061 -0.0249128 0.827278
12.9986 38.8577 73.1907 0.570522 0.001677 0.821281
13.0256 37.7359 73.1577 0.546287 -0.00942811 0.837512
12.2019 36.8752 73.6894 0.54392 -0.00424153 0.839127
11.3382 37.0459 74.1995 0.481377 -0.0487026 0.87502
10.5276 37.4846 74.6561 0.474191 -0.0624538 0.878204
9.7795 38.0795 75.1009 0.443268 -0.0536748 0.894213
9.04272 38.6963 75.4689 0.405337 -0.0348971 0.913498
7.97048 39.5818 75.9527 0.376071 -0.0253348 0.926244
7.10714 40.0676 76.319 0.361697 -0.0589103 0.930333
6.04465 40.2499 76.6807 0.311376 -0.0592875 0.948436
4.2348 40.2108 77.1993 0.236769 -0.0586395 0.96979
2.55988 40.004 77.503 0.124456 -0.0519381 0.990864
1.53835 39.8785 77.6244 0.0692629 -0.0750007 0.992992
0.113255 39.7869 77.6698 0.00143671 -0.0489862 0.99818
-1.76735 39.633 77.5689 -0.0584617 -0.0465877 0.997201
-2.98537 39.4058 77.3482 -0.182868 -0.0698027 0.980655
-4.73044 39.0139 76.9599 -0.223078 -0.0644718 0.972666
-5.70109 38.8312 76.6991 -0.291823 -0.0965361 0.950303
-6.71331 38.8261 76.3312 -0.344125 -0.0919475 0.934406
-7.9853 39.2904 75.8894 -0.367411 -0.084477 0.926214
-8.69082 40.0173 75.6695 -0.378395 -0.0762414 0.922476
-9.01432 41.085 75.5939 -0.461515 -0.0557021 0.885382
-8.97695 42.101 75.6747 -0.460976 -0.0448299 0.886265
-8.21875 43.6319 76.0888 -0.365402 -0.0538461 0.92928
-7.54724 44.4197 76.4041 -0.374742 -0.0573514 0.925353
-6.83266 45.0582 76.7377 -0.349912 -0.0503081 0.934951
-5.52884 45.8844 77.2267 -0.337083 -0.0312143 0.940952
-4.31208 46.5259 77.5348 -0.17775 -0.0502863 0.98279
-3.38299 46.9951 77.7252 -0.169076 -0.044408 0.984559
-2.46027 47.4632 77.8828 -0.142529 -0.0425223 0.988877
-1.50533 47.8679 78.0335 -0.108711 -0.0221711 0.993223
-1.70309 48.6212 78.0143 -0.0844578 0.00811065 0.996394
-0.484793 48.923 78.1142 -0.0496956 -0.0106596 0.997957
0.649832 49.0433 78.0973 0.0481801 0.011642 0.998767
1.7157 49.0232 78.0426 0.0901977 -0.010759 0.994891
2.69173 48.8335 77.914 0.11932 -0.0382344 0.992119
3.66338 48.4457 77.7719 0.182672 -0.0671352 0.980867
4.74275 47.8803 77.5226 0.262918 -0.0406931 0.961545
5.69754 46.9923 77.1546 0.317676 -0.0529851 0.946631
6.38725 46.3013 76.8821 0.323125 -0.0462762 0.945222
7.27573 45.4915 76.506 0.377556 -0.0443594 0.924922
8.68633 44.4519 75.8866 0.415502 -0.0319293 0.908198
9.52884 43.9475 75.4423 0.452169 -0.033605 0.891297
10.3323 43.4666 75.0163 0.482144 -0.0342354 0.874789
11.3172 42.7658 74.4037 0.510018 -0.0389112 0.859267
12.0067 42.1048 73.9387 0.544276 -0.0488343 0.837476
12.8352 40.9758 73.3511 0.55913 -0.0247297 0.828502
13.3588 39.9351 72.9474 0.57667 -0.0294623 0.816437
13.6662 38.9851 72.7261 0.573359 0.00323116 0.819291
13.7752 37.7467 72.64 0.592398 -0.00774314 0.805605
13.2693 36.5006 72.9786 0.576245 -0.0187751 0.817061
11.9381 35.9935 73.7941 0.494064 -0.0520729 0.867865
10.8338 36.4149 74.4352 0.468144 -0.0433451 0.882587
9.95061 37.0047 74.9335 0.471091 -0.0534455 0.880409
9.216 37.6367 75.3332 0.415166 -0.0520031 0.908258
8.44689 38.2688 75.7187 0.409475 -0.0409134 0.911338
7.62391 38.873 76.0684 0.33922 -0.0512269 0.939311
6.18435 39.4079 76.5872 0.304707 -0.0415694 0.951539
5.09205 39.5007 76.9448 0.274654 -0.0598056 0.958979
3.48305 39.3784 77.3401 0.235941 -0.0536413 0.970258
2.45916 39.2395 77.4748 0.122779 -0.0528918 0.991023
1.04834 39.1077 77.5852 0.0635864 -0.100351 0.992902
-0.529803 39.039 77.5998 -0.0412027 -0.0807974 0.9957
-1.56669 38.9317 77.5267 -0.070284 -0.0905563 0.993376
-2.6971 38.7023 77.3578 -0.187596 -0.0555802 0.980672
-3.95526 38.419 77.0971 -0.202344 -0.0705511 0.97658
-5.28125 38.1171 76.7312 -0.245459 -0.100438 0.96419
-6.37604 37.983 76.369 -0.340483 -0.0946608 0.935474
-7.53464 38.1589 75.9675 -0.362335 -0.0694421 0.928785
-8.46869 38.6301 75.626 -0.380751 -0.0969356 0.919583
-9.42581 39.7703 75.2958 -0.46089 -0.0600383 0.885416
-9.79857 41.4472 75.2077 -0.462983 -0.0527009 0.884792
-9.66022 42.453 75.336 -0.464278 -0.047948 0.88439
-9.28477 43.3725 75.5725 -0.459056 -0.0389516 0.887553
-8.55485 44.4424 75.9844 -0.420216 -0.0205075 0.906451
-7.83707 45.2056 76.3199 -0.402554 -0.0478174 0.914105
-6.50904 46.2149 76.8865 -0.331831 -0.0271554 0.942941
-4.94984 47.0702 77.4474 -0.249248 -0.0320603 0.964908
-3.98144 47.5291 77.6463 -0.178019 -0.0406846 0.983177
-3.04734 48.0186 77.8197 -0.162371 -0.0376985 0.986009
-2.05762 48.498 77.9851 -0.113514 -0.0171456 0.992641
-2.4902 49.1675 77.9427 -0.0816952 -0.0192461 0.996086
-1.50125 49.5225 78.0374 -0.0784588 -0.046712 0.995822
-0.440665 49.7245 78.1304 -0.0505757 -0.0276905 0.997767
0.624642 49.8228 78.1127 0.0515279 -0.0468864 0.997564
1.71793 49.8108 78.0538 0.0645579 -0.0356288 0.99717
2.89967 49.5928 77.9203 0.118836 -0.0502086 0.991644
3.92178 49.2245 77.7809 0.151185 -0.055258 0.986292
5.26718 48.4496 77.3502 0.321886 -0.00968801 0.946729
6.42262 47.3498 76.9168 0.338133 -0.0218739 0.940842
7.14514 46.6142 76.6234 0.360839 -0.0475278 0.931221
7.86952 45.9782 76.2897 0.374719 -0.0640692 0.924911
8.61143 45.3824 75.9471 0.383267 -0.0357565 0.922917
9.56395 44.8058 75.4568 0.450623 -0.0339523 0.892068
10.404 44.3103 75.0094 0.493015 -0.0286864 0.868605
11.1649 43.807 74.5305 0.526291 -0.0186989 0.850091
12.1256 43.0446 73.8932 0.582683 -0.0132504 0.812545
13.0521 41.9119 73.2221 0.596695 -0.00988885 0.802217
13.6041 40.9931 72.8001 0.606778 0.00510367 0.794854
14.138 39.8302 72.3887 0.577686 -0.0127446 0.815961
14.4153 38.7166 72.1776 0.595511 -0.00738766 0.803313
14.4194 37.4591 72.164 0.595296 -0.00373839 0.803489
14.1455 36.4328 72.358 0.585169 -0.0127421 0.810732
13.4017 35.5481 72.8879 0.574394 0.0301836 0.818022
12.5549 35.1386 73.4339 0.506304 -0.011191 0.861994
11.0962 35.3916 74.2494 0.477988 -0.015237 0.878115
10.2303 35.833 74.7119 0.443589 -0.0748957 0.893094
9.21867 36.6704 75.2647 0.398305 -0.0697974 0.914588
8.47853 37.3314 75.6385 0.394717 -0.0716132 0.916008
7.5687 38.0107 76.0411 0.341116 -0.0553829 0.93838
6.66774 38.502 76.3924 0.321604 -0.0468079 0.945544
5.58512 38.7056 76.7475 0.292349 -0.0523425 0.954761
4.3258 38.7175 77.0957 0.250301 -0.059704 0.966325
3.32384 38.6105 77.331 0.17815 -0.0574977 0.980811
2.13462 38.4484 77.4322 0.0927105 -0.0975249 0.990902
0.963981 38.3564 77.513 0.044689 -0.113252 0.992343
-0.0765309 38.3245 77.5427 0.0320347 -0.130047 0.99099
-1.15324 38.254 77.492 -0.0622318 -0.0961146 0.993407
-2.4041 37.9927 77.3713 -0.131673 -0.0796294 0.986542
-3.47988 37.754 77.1417 -0.212024 -0.0872596 0.973361
-4.90716 37.3841 76.7579 -0.255089 -0.0847288 0.963198
-6.00572 37.189 76.4324 -0.324726 -0.0693313 0.94326
-7.31102 37.2052 75.981 -0.327218 -0.0664842 0.942607
-8.40356 37.6901 75.5608 -0.382606 -0.0851188 0.919982
-9.43252 38.3635 75.1947 -0.421778 -0.0799894 0.902065
-10.1163 39.4882 74.9148 -0.466072 -0.0581261 0.882834
-10.5187 41.1251 74.8011 -0.501933 -0.0595971 0.862837
-10.4639 42.2458 74.896 -0.492112 -0.0449557 0.86937
-10.1887 43.2172 75.0979 -0.460868 -0.0341232 0.886798
-9.52398 44.4084 75.4881 -0.465427 -0.0310153 0.884539
-8.93843 45.1678 75.8246 -0.437357 -0.0525629 0.897744
-7.81789 46.2083 76.4129 -0.407689 -0.085106 0.909133
-6.89483 46.8602 76.7693 -0.325677 -0.024207 0.94516
-5.70081 47.5281 77.1968 -0.322405 -0.0103727 0.946545
-4.74813 47.9966 77.5259 -0.251443 -0.0268138 0.964613
-3.70838 48.5091 77.7296 -0.162371 -0.0376985 0.986009
-2.64071 49.1111 77.9277 -0.152094 -0.0398632 0.987508
-2.60794 49.1266 77.933 -0.113514 -0.0171456 0.992641
-2.82569 49.9046 77.9177 -0.137583 -0.0183295 0.990229
-1.89061 50.2387 78.0404 -0.102003 -0.0319575 0.993879
-0.674234 50.4776 78.132 -0.0215498 -0.0106692 0.99971
0.447487 50.5858 78.1568 0.0183375 -0.0259704 0.998654
1.52235 50.606 78.0914 0.0768102 -0.0292172 0.996618
2.54653 50.5142 78.0094 0.0987385 -0.0395955 0.994048
3.58131 50.2012 77.8691 0.177844 -0.0168354 0.981551
4.85448 49.6495 77.5092 0.317429 -0.0342696 0.947651
5.76183 49.0464 77.188 0.327184 -0.0139397 0.944831
6.66921 48.1983 76.847 0.340032 -0.0196298 0.940207
7.5754 47.2597 76.4857 0.362344 -0.0345641 0.93128
8.38998 46.5101 76.1145 0.417683 -0.0400415 0.906582
9.69054 45.6189 75.4144 0.457286 -0.0268782 0.88891
11.2113 44.683 74.5206 0.525737 -0.0244798 0.850266
12.0101 44.147 74.0049 0.564851 -0.0125254 0.824648
12.8401 43.3245 73.3842 0.584763 -0.0122982 0.811078
13.761 42.0354 72.6776 0.612315 -0.0128533 0.790508
14.3021 41.1019 72.2653 0.607915 0.00411433 0.793991
14.893 39.6663 71.7821 0.635977 0.00377643 0.771557
15.1097 37.8058 71.6482 0.639533 0.0172703 0.768563
14.9358 36.518 71.7886 0.57607 0.00632327 0.817369
13.9836 34.9657 72.5012 0.571909 0.0358613 0.819499
13.1888 34.4555 73.0293 0.542481 -0.0191874 0.839576
12.0983 34.2964 73.6824 0.480323 -0.0171036 0.876828
11.053 34.5366 74.2475 0.469186 -0.0258206 0.882722
10.083 34.9982 74.7229 0.422015 -0.0170632 0.906428
9.19513 35.6798 75.2021 0.396142 -0.0693226 0.915568
8.4975 36.3605 75.5543 0.394913 -0.0698358 0.916059
7.68809 37.0502 75.9361 0.340622 -0.0618518 0.938163
6.53848 37.7193 76.3966 0.339416 -0.0557934 0.938966
5.09528 37.9822 76.844 0.281903 -0.064795 0.957252
4.0946 37.9646 77.1087 0.240597 -0.0591287 0.968774
2.92147 37.8013 77.3111 0.086094 -0.0705017 0.993788
1.83483 37.6605 77.3931 0.0693715 -0.0880538 0.993462
0.605832 37.5854 77.4296 0.0239778 -0.0977446 0.994923
-0.592158 37.5807 77.4614 -0.0128819 -0.111714 0.99248
-1.6646 37.4281 77.3754 -0.0801754 -0.102806 0.991285
-3.0307 37.0653 77.175 -0.173497 -0.121459 0.976346
-4.0576 36.8179 76.933 -0.232663 -0.0849452 0.968566
-5.61819 36.4205 76.4901 -0.251377 -0.0786478 0.964689
-6.6233 36.3159 76.1558 -0.323595 -0.0690927 0.943668
-7.89435 36.5366 75.6797 -0.393759 -0.0755908 0.9161
-9.116 37.1674 75.2161 -0.390123 -0.0871921 0.916584
-10.2743 38.1785 74.7403 -0.464604 -0.0517856 0.883925
-10.7387 39.0646 74.5577 -0.480161 -0.0486502 0.875569
-11.0641 40.0562 74.4135 -0.505503 -0.050529 0.861326
-11.2353 41.6528 74.4249 -0.50084 -0.0636194 0.863198
-11.113 42.6469 74.5434 -0.530834 0.0152388 0.847306
-10.6537 43.9327 74.8362 -0.535193 -0.0330239 0.844068
-10.038 44.9567 75.235 -0.472382 -0.0386855 0.880457
-9.32105 45.8543 75.6596 -0.495763 -0.0132087 0.867144
-8.59137 46.5675 76.0436 -0.45683 -0.012735 0.889463
-7.83765 47.1415 76.4443 -0.401624 -0.0139299 0.913358
-6.96349 47.6907 76.7651 -0.327307 -0.0143874 0.944806
-5.59292 48.4456 77.2458 -0.321297 -0.0138942 0.946876
-4.67622 48.8478 77.5555 -0.252559 -0.00642892 0.965443
-3.62094 49.5127 77.7867 -0.184692 -0.0343728 0.981817
-3.56333 49.5467 77.7975 -0.154988 -0.0327499 0.987301
-3.8046 50.3024 77.7752 -0.181331 -0.0272867 0.982586
-2.5549 50.8568 77.9673 -0.125316 -0.0166346 0.991977
-1.45314 51.1483 78.1116 -0.126192 -0.0236065 0.991704
-0.392321 51.3075 78.1481 -0.0194752 -0.0169301 0.999666
0.640088 51.3601 78.1673 -0.00751694 -0.00968943 0.999848
1.71874 51.3585 78.1002 0.0772598 -0.0411573 0.996161
2.89075 51.2525 78.0038 0.12212 -0.00727098 0.990924
3.87952 50.9309 77.78 0.23417 0.0246192 0.971879
5.39655 50.2697 77.3462 0.321325 -0.032594 0.946408
6.24895 49.6252 77.0278 0.337796 -0.0244548 0.940902
7.39246 48.5924 76.5934 0.344378 -0.0225214 0.938533
8.43342 47.5097 76.1219 0.450761 -0.01218 0.892473
9.11894 46.8557 75.7502 0.458264 -0.0301534 0.888304
10.1534 46.207 75.1956 0.457461 -0.0292421 0.888749
11.0033 45.7336 74.6925 0.519667 -0.0250621 0.853904
11.7657 45.2299 74.1855 0.542363 -0.0312849 0.839559
12.7052 44.4873 73.5111 0.584849 -0.0227416 0.810823
13.3493 43.7761 73.0269 0.593654 -0.0232131 0.80431
13.9258 43.0264 72.569 0.603178 -0.0243194 0.797235
14.4101 42.2429 72.1769 0.608808 -0.0191526 0.793043
15.0328 41.0611 71.6797 0.625684 0.00160534 0.780075
15.476 39.9847 71.3091 0.633972 -0.0113248 0.773273
15.6785 38.9391 71.1521 0.635929 0.0123996 0.771627
15.7423 37.8849 71.1173 0.639123 0.0367373 0.767928
15.6839 36.7047 71.2575 0.603579 0.0377696 0.795081
15.4144 35.76 71.4698 0.572396 0.0449708 0.818743
14.7497 34.6675 71.9864 0.565812 0.0361077 0.823741
13.8752 33.8863 72.6 0.545758 0.0206375 0.837628
12.9002 33.5147 73.2002 0.508803 -0.0234926 0.860187
11.7159 33.5082 73.859 0.475947 -0.0413889 0.8785
10.7172 33.7618 74.4027 0.445746 -0.0231113 0.894484
9.66278 34.3584 74.9066 0.398677 -0.0471767 0.915039
8.54319 35.2661 75.4509 0.384818 -0.0819992 0.91934
7.84311 36.0108 75.8084 0.352106 -0.0794574 0.931994
6.79028 36.7726 76.2317 0.315217 -0.08241 0.945435
5.88219 37.1206 76.5481 0.286059 -0.0785195 0.954989
4.8049 37.2501 76.8791 0.2658 -0.0637027 0.961788
3.58822 37.151 77.1501 0.212428 -0.0909754 0.97293
2.58333 37.0036 77.2785 0.0757413 -0.0948226 0.992457
1.46076 36.8633 77.3296 0.0557789 -0.105912 0.99281
0.257776 36.8319 77.3642 0.0238945 -0.0974165 0.994957
-0.995254 36.7672 77.361 -0.0801754 -0.102806 0.991285
-2.15184 36.5415 77.2187 -0.10377 -0.120322 0.987294
-3.13082 36.2693 77.0445 -0.151268 -0.139456 0.978541
-4.11099 36.0063 76.8495 -0.212745 -0.0896545 0.972017
-5.04783 35.7286 76.5823 -0.252949 -0.0749268 0.964574
-6.2119 35.4979 76.2383 -0.331568 -0.076704 0.940207
-7.48643 35.5554 75.7814 -0.340033 -0.0874812 0.936336
-8.64304 36.0043 75.3202 -0.388422 -0.0567159 0.919696
-9.59907 36.5129 74.9411 -0.39862 -0.0895841 0.912729
-10.5849 37.3528 74.5411 -0.462662 -0.0409326 0.885588
-11.157 38.2481 74.283 -0.492336 -0.0533763 0.86794
-11.5903 39.3282 74.0804 -0.536754 -0.053358 0.842047
-11.8438 40.4047 73.9803 -0.499913 -0.0450611 0.864821
-11.9243 41.4318 73.981 -0.617968 -0.0310539 0.785575
-11.7875 42.8002 74.119 -0.571459 0.00569289 0.818793
-11.3016 44.1375 74.4211 -0.558691 -0.0213183 0.829062
-10.6289 45.3825 74.8685 -0.534417 0.0278364 0.844699
-9.57069 46.6881 75.5158 -0.537161 -0.0180535 0.843277
-8.63929 47.4876 76.0353 -0.462219 -0.0199657 0.886541
-7.83069 48.0461 76.4593 -0.394245 -0.0104281 0.916808
-6.59228 48.7906 76.9113 -0.323689 -0.0152018 0.946039
-5.65145 49.2567 77.2407 -0.314632 -0.0189342 0.948974
-4.70751 49.6519 77.552 -0.285657 -0.0185622 0.95776
-4.32764 49.9235 77.6493 -0.223454 -0.0222756 0.974274
-4.68581 50.594 77.5626 -0.262999 -0.00483423 0.964784
-3.98492 51.3157 77.7306 -0.220825 0.0113707 0.97517
-3.08476 51.6336 77.9168 -0.144379 -0.0198793 0.989133
-1.87133 51.9091 78.0811 -0.126831 -0.0298644 0.991475
-0.791422 52.1098 78.1538 -0.0378704 -0.0069534 0.999025
0.242846 52.1716 78.1713 -0.000434373 -0.007593 0.999965
1.28534 52.1758 78.1677 0.042625 -0.0234509 0.998039
2.37661 52.1204 78.0666 0.164064 0.0289853 0.986021
3.41444 51.978 77.8959 0.198382 0.00601328 0.979324
5.02456 51.3655 77.4919 0.256427 -0.000759882 0.966339
6.10898 50.9086 77.1113 0.338042 -0.0240832 0.940823
6.76738 50.2044 76.8567 0.33804 -0.0241268 0.940822
7.52063 49.5563 76.5693 0.368531 -0.0141395 0.92888
8.14129 48.8544 76.2712 0.435501 -0.0186533 0.899835
8.84546 48.2102 75.922 0.450061 -0.00813033 0.892913
9.78044 47.2817 75.4219 0.476229 -0.0116971 0.878908
10.7965 46.6425 74.8149 0.519551 0.00831407 0.854398
11.6652 46.3561 74.2846 0.536869 -0.00386913 0.843389
12.3628 45.6832 73.7888 0.583528 -0.0197411 0.811853
13.449 44.7994 72.9822 0.595153 -0.021764 0.803238
14.0887 44.0152 72.4753 0.604804 -0.0221171 0.796066
14.6376 43.2759 72.0366 0.619372 -0.0272205 0.784414
15.1139 42.413 71.6168 0.623907 -0.00329171 0.781491
15.6571 41.4266 71.1795 0.640977 -0.00727039 0.767182
16.1291 40.5053 70.7789 0.63581 0.00313498 0.771725
16.2647 39.1881 70.6615 0.637644 0.0081133 0.770284
16.3569 37.862 70.6072 0.63881 0.0399753 0.767898
16.3942 36.8642 70.6704 0.58192 0.091314 0.808103
16.2654 35.8171 70.8692 0.581832 0.0499782 0.811719
15.6602 34.7005 71.3556 0.574103 0.0432691 0.817634
14.8823 33.6147 71.9248 0.56 0.00849423 0.828406
13.7891 32.9013 72.6526 0.539176 -0.0036863 0.841979
12.7167 32.6956 73.2639 0.494775 -0.0440147 0.867906
11.5316 32.7412 73.9224 0.475818 -0.0419122 0.878544
10.5694 32.7057 74.4225 0.411839 -0.0547056 0.908171
9.23146 33.6737 75.0245 0.372645 -0.0797862 0.92453
8.44592 34.256 75.4013 0.381426 -0.0837002 0.920602
7.74985 35.0101 75.7582 0.352718 -0.0805638 0.931732
7.05458 35.782 76.0583 0.318948 -0.075211 0.944773
5.56627 36.493 76.5909 0.286108 -0.0810894 0.954757
4.27317 36.3716 76.931 0.215822 -0.0793346 0.973202
3.05313 36.2074 77.1639 0.116786 -0.112598 0.985177
2.0363 36.0746 77.2128 0.0561746 -0.107486 0.992618
0.947503 36.0501 77.2696 0.0324504 -0.081355 0.996124
-0.138772 36.0658 77.3072 0.0303737 -0.0884923 0.995614
-1.14438 35.9835 77.2692 -0.108369 -0.0869808 0.990204
-2.28355 35.7218 77.1031 -0.114584 -0.108109 0.987357
-3.60677 35.3738 76.8709 -0.151697 -0.0915572 0.984177
-4.88141 34.9733 76.5673 -0.253071 -0.0748755 0.964546
-6.04035 34.6261 76.208 -0.304098 -0.107091 0.946206
-7.28703 34.7539 75.7788 -0.339785 -0.0916955 0.936013
-8.76223 34.9988 75.2143 -0.380393 -0.0513697 0.923396
-9.94977 35.7882 74.7492 -0.401263 -0.0414124 0.915023
-10.7697 36.2898 74.3658 -0.533657 -0.0933263 0.840528
-11.5648 37.5605 73.9782 -0.52282 -0.0666893 0.84983
-12.0221 38.5 73.7519 -0.542707 -0.0607772 0.83772
-12.3784 39.5498 73.5896 -0.578396 -0.025692 0.813681
-12.5485 41.1934 73.4806 -0.619487 -0.0299328 0.784402
-12.6297 42.282 73.4512 -0.621232 -0.0163348 0.783414
-12.2523 43.6605 73.7653 -0.615502 -0.0140623 0.787994
-11.83 44.8792 74.0741 -0.574219 0.00383268 0.818692
-11.3635 45.7531 74.3807 -0.552446 0.0196628 0.833297
-10.3423 46.9111 75.0298 -0.527088 -0.0300323 0.849072
-9.71878 47.7379 75.4611 -0.509925 -0.0318613 0.859221
-8.90183 48.323 75.9121 -0.472179 -0.00428318 0.881492
-7.86858 48.8686 76.4359 -0.446973 -0.000308483 0.894527
-6.94172 49.5922 76.8174 -0.315017 -0.0461158 0.947957
-5.99879 50.0687 77.1498 -0.307992 -0.0403637 0.950512
-5.4804 50.1533 77.3183 -0.305976 -0.0342759 0.951417
-5.08503 50.3275 77.4525 -0.285657 -0.0185622 0.95776
