-2.88944 43.5504 78.8271 -0.15685 -0.0549849 0.986082
-1.48634 44.6112 79.0968 -0.152588 -0.055923 0.986704
-0.114354 44.711 79.1602 -0.0140916 -0.0753504 0.997057
1.0334 44.6216 79.1643 0.0497477 -0.0566988 0.995248
1.88745 44.143 79.0354 0.135064 -0.0446226 0.989785
0.193394 43.9499 79.114 -0.00873563 -0.053008 0.998549
-1.106 44.201 79.112 -0.0522612 -0.0754829 0.994738
-2.19835 44.0825 78.9562 -0.142051 -0.0660499 0.987631
-2.88904 43.5499 78.8271 -0.156185 -0.0609083 0.985844
-2.76555 42.8275 78.8003 -0.145397 -0.0615531 0.987417
-3.81548 42.6049 78.6081 -0.198222 -0.0663768 0.977907
-5.01314 42.1642 78.3287 -0.255869 -0.0600933 0.96352
-6.25613 41.9471 77.9167 -0.304774 -0.0615823 0.950431
-6.007 42.7784 78.053 -0.310184 -0.0723982 0.947901
-5.2 43.4729 78.3605 -0.223315 -0.0506384 0.973423
-4.29626 44.0832 78.5947 -0.221597 -0.0582208 0.97331
-3.1874 44.5987 78.8348 -0.153255 -0.0529966 0.986764
-2.30422 45.0721 78.9965 -0.155054 -0.0573429 0.986225
-1.31589 45.3623 79.1673 -0.0948984 -0.0538591 0.99227
-0.00933077 45.5389 79.2233 -0.0258158 -0.0598196 0.997703
1.12127 45.5363 79.1864 0.104932 -0.034698 0.993872
2.29563 45.1691 79.034 0.14003 -0.055841 0.988561
3.16629 44.762 78.8853 0.167374 -0.0480043 0.984535
3.34649 43.9482 78.815 0.18207 -0.0471763 0.981521
2.46361 43.5506 78.9303 0.147782 -0.0429347 0.988082
0.851739 43.291 79.0709 0.028256 -0.0756141 0.996736
-0.6073 43.262 79.0668 -0.0500376 -0.075377 0.994948
-1.75317 43.17 78.9585 -0.0960233 -0.0723919 0.992245
-2.1436 43.051 78.8999 -0.132009 -0.0649186 0.989097
-1.82033 42.3185 78.8899 -0.0960233 -0.0723919 0.992245
-0.604253 42.4348 78.9868 -0.082648 -0.0762523 0.993441
0.898319 42.55 79.0145 0.0272828 -0.0746994 0.996832
2.50569 42.8328 78.8924 0.146177 -0.0539027 0.987769
4.12954 43.1266 78.6033 0.21647 -0.0462555 0.975192
5.07672 43.3815 78.4027 0.269556 -0.0441143 0.960565
6.06918 43.5122 78.072 0.324763 -0.0446081 0.944743
5.28672 44.1009 78.364 0.318112 -0.046198 0.946927
4.10627 45.0591 78.7155 0.210458 -0.0658143 0.975385
2.67716 45.916 79.0256 0.162464 -0.0511865 0.985083
1.72807 46.2435 79.1539 0.108545 -0.0732725 0.991387
0.40569 46.337 79.2691 -0.00980046 -0.0110147 0.999476
-1.14431 46.1326 79.2033 -0.0496447 -0.0210081 0.998516
-2.31443 45.8366 79.0429 -0.154288 -0.0619069 0.986078
-3.2167 45.4287 78.8747 -0.15275 -0.0528085 0.986853
-4.26306 44.9187 78.6721 -0.199202 -0.0792603 0.976575
-5.21244 44.3837 78.4035 -0.228019 -0.0773652 0.97014
-6.40522 43.5432 77.9817 -0.320328 -0.0840218 0.943541
-7.18346 42.7372 77.6558 -0.328054 -0.0654529 0.942377
-7.43468 41.5777 77.4841 -0.337476 -0.0885374 0.937161
-6.62435 41.0164 77.7344 -0.329002 -0.0680607 0.941561
-5.70034 41.2377 78.0477 -0.302107 -0.0657689 0.950994
-4.60098 41.5338 78.375 -0.200479 -0.0646927 0.977558
-3.50838 41.8735 78.62 -0.197374 -0.0665276 0.978068
-2.14723 42.2189 78.8408 -0.12805 -0.0714889 0.989186
-1.768 41.5141 78.8432 -0.107426 -0.0615356 0.991874
-0.0347119 41.7351 78.9871 -0.0246776 -0.0609007 0.996752
1.19436 41.8307 78.9658 0.022617 -0.0590075 0.998001
2.56954 42.0832 78.8382 0.15161 -0.0585715 0.986702
3.96049 42.3319 78.6026 0.220137 -0.0379801 0.974683
5.11926 42.4308 78.3449 0.27307 -0.0482618 0.959363
6.70833 42.2945 77.7914 0.326141 -0.0484752 0.944077
7.65809 42.185 77.4169 0.366034 -0.0469692 0.929416
8.59794 41.525 76.9886 0.429314 -0.058224 0.901245
9.32863 40.8691 76.5988 0.444833 -0.0539486 0.893911
10.1503 40.1477 76.1549 0.467388 -0.0312042 0.883116
10.9253 39.2999 75.6932 0.488075 -0.033169 0.87216
12.1116 39.1061 74.9677 0.55484 -0.0333427 0.831287
11.6204 40.2566 75.3334 0.522567 -0.0277215 0.851438
10.9081 41.1828 75.7628 0.489713 -0.0284987 0.871417
9.86935 41.8344 76.3611 0.466237 -0.0295979 0.884165
8.87873 42.4779 76.902 0.465963 -0.0414333 0.88373
8.04913 43.0313 77.3042 0.367921 -0.0439745 0.928817
6.76214 43.9112 77.852 0.344984 -0.0420914 0.937423
5.98374 44.4926 78.1476 0.325322 -0.0456573 0.9445
5.20648 45.1184 78.4394 0.318453 -0.0398515 0.947097
4.26938 45.8576 78.7221 0.184184 -0.0555316 0.981204
3.13796 46.5969 78.985 0.17268 -0.0612753 0.982975
1.40104 47.0815 79.2513 0.0660934 -0.0354959 0.995596
0.377826 47.0944 79.2706 0.0168117 -0.000628886 0.999858
-0.676653 46.9973 79.2433 -0.04682 -0.0142958 0.998719
-1.70615 46.7733 79.1827 -0.0568983 -0.0121863 0.998291
-2.66972 46.5013 79.0273 -0.155822 -0.0599173 0.985963
-4.20019 45.8019 78.7346 -0.160648 -0.0525773 0.985594
-5.10656 45.3233 78.533 -0.209945 -0.0886416 0.973155
-5.96632 44.7817 78.2336 -0.338067 -0.0678901 0.938569
-6.77498 44.21 77.9099 -0.325574 -0.0791458 0.942197
-7.79923 43.1349 77.4737 -0.321317 -0.0703763 0.944353
-8.40264 41.4812 77.1061 -0.445688 -0.0782385 0.891753
-8.07019 40.5099 77.1503 -0.347882 -0.0798025 0.933995
-7.0257 40.2133 77.5257 -0.349761 -0.0690145 0.934288
-5.74541 40.4266 77.9727 -0.302541 -0.0715412 0.950446
-4.81175 40.6986 78.2794 -0.217112 -0.0693544 0.973482
-3.70655 41.0223 78.5301 -0.206447 -0.0537331 0.976981
-2.70809 41.2918 78.7019 -0.133956 -0.0414303 0.990075
-2.46301 41.3521 78.7367 -0.12906 -0.0495232 0.990249
-2.18157 40.6226 78.7462 -0.115578 -0.0422616 0.992345
-3.37003 40.3348 78.5632 -0.180743 -0.0565922 0.981533
-4.80951 39.9139 78.2116 -0.258533 -0.0874822 0.961543
-5.7491 39.6371 77.9116 -0.292027 -0.0730644 0.953545
-7.53742 39.3975 77.2605 -0.36152 -0.0944677 0.927556
-8.837 40.0772 76.7642 -0.442748 -0.0770304 0.893328
-9.17644 41.0239 76.675 -0.445862 -0.0781515 0.891672
-9.07054 42.0131 76.8149 -0.462906 -0.0439345 0.885318
-8.60443 43.1067 77.1121 -0.460342 -0.0458679 0.886551
-7.9058 44.222 77.5207 -0.388074 -0.0540706 0.916997
-6.59723 45.2514 78.043 -0.328848 -0.0586355 0.942561
-5.63576 45.8922 78.4479 -0.34013 -0.0602675 0.938277
-4.61397 46.4419 78.7036 -0.174389 -0.0619754 0.982644
-3.60657 46.909 78.8977 -0.168451 -0.0552466 0.984139
-2.4059 47.373 79.117 -0.153635 -0.053987 0.986652
-1.22662 47.6745 79.2164 -0.0572974 -0.00679353 0.998334
-0.176781 47.8287 79.2807 -0.0348376 -0.0348872 0.998516
0.864007 47.8735 79.2685 0.0175195 -0.0487765 0.998656
1.96167 47.797 79.2396 0.0683886 -0.0347637 0.99587
2.93048 47.5626 79.0708 0.162474 -0.0521351 0.985334
4.38957 46.738 78.7632 0.244154 -0.0499679 0.966057
5.5837 45.7498 78.3396 0.318527 -0.0417195 0.94699
6.43585 45.0563 78.0199 0.323122 -0.0441568 0.945321
7.66615 44.1458 77.5075 0.365679 -0.0402518 0.92987
8.63519 43.4987 77.0941 0.420542 -0.0475073 0.90418
9.4606 42.9908 76.6218 0.472187 -0.0502079 0.880067
10.2786 42.5297 76.1686 0.479396 -0.0315943 0.876899
11.0433 42.0143 75.7163 0.49306 -0.0319342 0.869408
11.7678 41.3583 75.2827 0.522021 -0.0316417 0.851577
12.4633 40.3438 74.7802 0.552636 -0.0321319 0.832794
12.8282 39.3032 74.4951 0.55565 -0.0294374 0.830891
12.3433 37.9633 74.7659 0.552394 -0.0345173 0.832866
11.4781 38.0972 75.3262 0.493758 -0.0428007 0.868545
10.2608 39.043 76.0514 0.467352 -0.0372669 0.883095
9.47963 39.7976 76.4755 0.442344 -0.0322539 0.896261
8.5578 40.6121 76.9585 0.417153 -0.0391916 0.9076
7.66055 41.1621 77.3605 0.368552 -0.0516828 0.928169
6.12135 41.5693 77.9567 0.31985 -0.0663488 0.944957
5.14437 41.6536 78.2876 0.294565 -0.0864347 0.951517
3.45543 41.4999 78.6936 0.224908 -0.0302507 0.97391
1.75931 41.1326 78.9085 0.121428 -0.0607224 0.990269
0.146791 40.9659 78.9384 0.0216091 -0.0584842 0.998054
-1.34957 40.7884 78.831 -0.0689865 -0.055804 0.996008
-1.68199 40.7367 78.8071 -0.0868141 -0.0489526 0.994762
-1.53947 39.9892 78.7808 -0.063466 -0.0485468 0.996802
-0.285621 40.152 78.8679 -0.0673438 -0.056613 0.996089
0.904486 40.235 78.8695 0.046778 -0.0913897 0.994714
2.18796 40.44 78.7987 0.110251 -0.0895327 0.989863
3.48399 40.7443 78.664 0.179157 -0.0319605 0.98219
5.11701 40.88 78.2245 0.275568 -0.088617 0.957188
6.16883 40.7603 77.869 0.299927 -0.0655526 0.951411
7.08904 40.5022 77.5622 0.374437 -0.0375963 0.926489
8.12024 39.9417 77.1133 0.391957 -0.0492065 0.918654
9.2177 39.0808 76.5728 0.435869 -0.0417783 0.899039
10.3319 38.0301 75.971 0.467352 -0.0372669 0.883095
11.0358 37.4501 75.5445 0.490119 -0.0490234 0.870276
12.0172 37.1062 74.9551 0.536083 -0.0266376 0.8437
13.0298 37.3496 74.3117 0.547039 -0.0193207 0.836847
13.5269 38.7806 73.99 0.573457 -0.0120866 0.818901
13.2396 40.3535 74.2609 0.566145 -0.0350462 0.823468
12.8047 41.2048 74.5756 0.569394 -0.00837695 0.822022
11.9132 42.2691 75.2197 0.540809 -0.0237756 0.839662
11.1681 42.8478 75.6666 0.504276 -0.0172595 0.86337
10.4052 43.3408 76.131 0.495296 -0.0426281 0.867486
9.58737 43.809 76.5997 0.480264 -0.0404171 0.876192
8.70321 44.3149 77.1054 0.420542 -0.0475073 0.90418
7.73133 44.9959 77.5223 0.360264 -0.0583234 0.931024
6.41189 45.9942 78.0687 0.331669 -0.0380388 0.942563
5.65904 46.6343 78.3522 0.31524 -0.0325181 0.948395
4.72774 47.4166 78.6741 0.303807 -0.0413818 0.951734
3.55413 48.174 79.0058 0.161399 -0.0624503 0.984911
1.64736 48.6025 79.2893 0.0683886 -0.0347637 0.99587
0.553199 48.628 79.3108 0.0175195 -0.0487765 0.998656
-0.502185 48.5599 79.2949 -0.0348376 -0.0348872 0.998516
-1.51841 48.3933 79.2308 -0.055378 -0.0445204 0.997472
-2.9816 47.981 79.0637 -0.155785 -0.0597464 0.985976
-3.97282 47.5818 78.8684 -0.173753 -0.0582574 0.983044
-4.89955 47.1396 78.6585 -0.235212 0.0138949 0.971842
-6.13241 46.4718 78.3003 -0.340777 -0.0368893 0.939344
-6.93166 45.9558 77.9699 -0.33892 -0.0669955 0.938329
-7.94829 45.2182 77.5316 -0.409973 -0.0235086 0.911793
-8.6686 44.424 77.1504 -0.450074 -0.0620892 0.89082
-9.28839 43.329 76.7664 -0.462537 -0.0435251 0.885531
-9.71839 42.273 76.4891 -0.463876 -0.0437973 0.884816
-9.89352 40.8675 76.3059 -0.462243 -0.0706308 0.883674
-9.56699 39.7219 76.3719 -0.442532 -0.0770075 0.893437
-8.88713 39.0367 76.6473 -0.439668 -0.083292 0.894277
-7.82923 38.6442 77.0686 -0.361373 -0.102657 0.926708
-6.68974 38.5944 77.4985 -0.334497 -0.105909 0.936215
-5.75796 38.8352 77.8468 -0.321615 -0.0757346 0.943641
-4.35677 39.2599 78.2825 -0.247459 -0.0594973 0.967047
-3.38702 39.5604 78.5175 -0.180935 -0.0438013 0.981949
-1.6874 39.9617 78.767 -0.109684 -0.0512962 0.992642
-1.62537 39.9759 78.7746 -0.0868141 -0.0489526 0.994762
-1.60151 39.2049 78.7353 -0.0866296 -0.0535775 0.994554
0.0818412 39.4199 78.8367 0.00452786 -0.0825482 0.995521
1.7891 39.5384 78.7604 0.0805373 -0.0927446 0.991983
3.52464 39.9954 78.6125 0.192793 -0.070501 0.97442
4.70213 40.1058 78.2724 0.279037 -0.0760735 0.957176
6.11541 39.965 77.8432 0.284958 -0.0508904 0.957188
7.26251 39.56 77.4545 0.382485 -0.0451379 0.922784
8.20041 38.9686 77.0226 0.390432 -0.0506954 0.919233
9.27359 38.0555 76.4882 0.430452 -0.0661249 0.900169
10.3512 37.041 75.9066 0.455887 -0.0490287 0.887926
11.4755 36.3849 75.243 0.483843 -0.0405045 0.874217
12.4818 36.2663 74.6292 0.534087 -0.032504 0.8448
13.743 36.9199 73.8186 0.573725 -0.0401361 0.818055
14.1582 38.0111 73.5595 0.568394 -0.00330661 0.822694
14.1839 39.0143 73.5339 0.573345 -0.0149062 0.818883
13.9594 40.262 73.707 0.625528 0.03802 0.779266
13.4974 41.3972 74.0795 0.642469 -0.0198658 0.766052
12.9393 42.227 74.492 0.573944 -0.0185883 0.818585
12.041 43.1317 75.1611 0.541482 -0.0225565 0.839297
11.3106 43.6571 75.6099 0.511547 -0.0478483 0.85792
10.5641 44.129 76.0792 0.495377 -0.043789 0.867397
9.78518 44.5744 76.5266 0.480264 -0.0404171 0.876192
8.36941 45.4526 77.3038 0.41694 -0.0333888 0.905886
7.55438 46.0219 77.653 0.352737 -0.0442687 0.934586
6.37599 46.9674 78.1178 0.340556 -0.0364421 0.939516
5.59037 47.68 78.4168 0.300692 -0.0549108 0.952139
4.19308 48.7454 78.8866 0.275895 -0.0276542 0.960786
3.23124 49.1274 79.1163 0.137091 -0.0365134 0.989342
2.20101 49.3191 79.2364 0.10971 -0.0111873 0.993888
1.1116 49.3737 79.3375 0.00291271 -0.0377525 0.999094
-0.00959478 49.3539 79.3227 -0.0156666 -0.0251636 0.999558
-1.18998 49.2268 79.2852 -0.067696 -0.0342769 0.997008
-2.41303 48.9578 79.1802 -0.08003 -0.0257825 0.996459
-3.55367 48.594 79.0083 -0.183715 -0.0515505 0.981196
-4.89152 47.9832 78.672 -0.248094 -0.0520438 0.96732
-5.95638 47.4226 78.3938 -0.296165 -0.000836762 0.953214
-6.78338 46.934 78.0713 -0.359462 -0.0253954 0.932764
-8.02182 46.1496 77.5204 -0.405915 -0.0331385 0.913206
-8.84706 45.4697 77.1318 -0.432972 -0.0415412 0.89992
-9.40761 44.6864 76.7914 -0.454096 -0.0616494 0.888817
-9.82899 43.8211 76.5094 -0.465434 -0.0528333 0.883465
-10.2481 42.9494 76.2465 -0.46267 -0.0454046 0.885366
-10.6409 41.4074 75.9354 -0.483074 -0.0639483 0.873241
-10.5653 40.3748 75.8981 -0.481512 -0.0675613 0.873832
-10.2744 39.4109 75.9855 -0.478999 -0.0555034 0.876029
-9.65256 38.6089 76.2454 -0.425573 -0.0554513 0.903223
-8.72603 38.0765 76.6453 -0.411203 -0.0705788 0.908633
-7.69285 37.8246 77.0234 -0.350599 -0.0969742 0.931364
-6.70121 37.7871 77.4002 -0.353657 -0.110951 0.928766
-5.72822 37.9977 77.7898 -0.321615 -0.0757346 0.943641
-4.72112 38.3444 78.1224 -0.253642 -0.0751488 0.964366
-3.30575 38.8131 78.4965 -0.215751 -0.0690916 0.973821
-1.99909 39.1176 78.6871 -0.114084 -0.0645943 0.991297
-1.59627 38.4212 78.6728 -0.0783613 -0.0963869 0.991859
-2.80767 38.1539 78.5168 -0.113115 -0.0842329 0.989913
-3.78041 37.8692 78.3304 -0.248219 -0.0624552 0.966509
-4.97819 37.4503 77.9818 -0.254992 -0.0794259 0.963672
-6.2682 37.0718 77.4769 -0.343161 -0.0995715 0.933855
-7.49484 37.0103 77.0245 -0.344457 -0.0824071 0.935178
-8.4652 37.1566 76.6735 -0.404025 -0.089471 0.910362
-9.46664 37.5725 76.2701 -0.414751 -0.0722006 0.906826
-10.4097 38.222 75.8449 -0.481349 -0.0492147 0.875146
-10.9553 39.1298 75.5952 -0.481019 -0.0556882 0.874906
-11.2226 40.1263 75.5201 -0.478126 -0.0616854 0.876122
-11.3474 41.2319 75.5312 -0.483322 -0.0654834 0.872989
-11.2667 42.2281 75.6344 -0.53177 -0.0352313 0.846147
-10.7636 43.5389 76.0048 -0.487085 -0.0606503 0.870814
-10.2781 44.5085 76.3157 -0.472042 -0.058035 0.879662
-9.48317 45.8811 76.832 -0.484913 -0.0329616 0.873418
-8.47094 46.7472 77.346 -0.411288 -0.04164 0.910553
-7.54397 47.3487 77.7785 -0.368802 -0.0147964 0.929389
-6.50932 47.9657 78.1953 -0.363358 -0.00732853 0.931598
-5.59338 48.4783 78.5129 -0.288788 -0.0177686 0.956098
-4.16477 49.1788 78.8994 -0.220985 -0.0358629 0.974575
-3.16334 49.5556 79.1294 -0.177296 -0.0195823 0.983233
-1.8546 49.8835 79.2525 -0.0800055 -0.0352061 0.996172
-0.649246 50.0622 79.3285 -0.0283348 -0.0174729 0.999366
0.495319 50.1111 79.3467 -0.0128714 -0.0218643 0.999678
1.61246 50.1005 79.3209 0.0732199 -0.0125118 0.996477
2.67289 50.0296 79.2023 0.112147 -0.0313835 0.993195
3.64362 49.8259 79.073 0.207124 -0.0138209 0.976462
4.65502 49.3943 78.7752 0.27437 -0.0380524 0.960861
5.55199 48.722 78.4892 0.291293 -0.0419485 0.95557
6.62889 47.703 78.0571 0.342527 -0.0418895 0.938574
7.41828 47.0211 77.741 0.343987 -0.0373132 0.938233
8.18938 46.4611 77.415 0.471969 -0.0278412 0.881042
9.10183 45.8301 76.9151 0.474024 -0.00977544 0.880456
10.0221 45.2923 76.4112 0.475818 -0.0103519 0.879483
10.9065 44.7986 75.9133 0.528281 -0.0224034 0.848121
12.1736 43.9608 75.0867 0.567559 -0.000578481 0.823013
13.0412 43.1854 74.4478 0.587611 -0.011416 0.809063
13.7644 42.2675 73.8762 0.636679 -0.031446 0.770335
14.3704 41.065 73.3348 0.638315 0.00995689 0.769082
14.797 39.2419 73.06 0.655843 0.0293458 0.754326
14.8183 38.218 73.0516 0.62531 -0.0139411 0.780247
14.6148 37.0957 73.1895 0.62506 -0.0185183 0.780357
14.1101 36.156 73.5242 0.578739 -0.0166712 0.815105
13.2746 35.6437 74.126 0.55225 -0.00556269 0.832775
12.1262 35.4416 74.8199 0.524852 -0.0257268 0.85073
11.1838 35.6168 75.3686 0.483587 -0.0405017 0.874359
10.3668 36.0693 75.8434 0.457287 -0.050455 0.887128
9.62502 36.7059 76.2279 0.423165 -0.0502707 0.904657
8.90046 37.4177 76.6192 0.418192 -0.0677868 0.905639
8.14199 38.0953 77.0013 0.396381 -0.0561213 0.91632
7.16396 38.749 77.4521 0.338615 -0.0587378 0.937386
6.22707 39.1291 77.7578 0.281901 -0.0649195 0.957244
4.60774 39.3556 78.2503 0.283031 -0.0641548 0.956963
3.57597 39.253 78.548 0.194371 -0.0730648 0.974033
2.3314 38.8801 78.6474 0.0966556 -0.0869438 0.991474
1.30354 38.6887 78.7101 0.0588732 -0.091175 0.994069
0.101011 38.6598 78.7727 0.00537112 -0.0864779 0.995077
-1.01267 38.5372 78.7138 -0.0472602 -0.0917244 0.994644
-0.740349 37.8178 78.6572 -0.0496105 -0.0974535 0.994003
-2.11077 37.5117 78.5294 -0.10563 -0.0969559 0.989667
-3.34476 37.2377 78.3518 -0.158463 -0.13501 0.977474
-4.32155 36.8916 78.1061 -0.231068 -0.116101 0.96527
-5.25038 36.5472 77.7952 -0.341281 -0.0945547 0.935127
-6.43226 36.2261 77.3407 -0.33767 -0.0843938 0.937474
-7.38014 36.2196 76.9962 -0.340803 -0.0835816 0.936412
-8.84283 36.4608 76.4375 -0.402204 -0.0839733 0.911672
-10.1089 37.0919 75.938 -0.414751 -0.0722006 0.906826
-11.0464 37.7412 75.4617 -0.499406 -0.0675986 0.863725
-11.6098 38.8601 75.2182 -0.481019 -0.0556882 0.874906
-11.8411 39.8395 75.1316 -0.568748 -0.0495063 0.821021
-11.9866 40.8746 75.0956 -0.575888 -0.0416728 0.816365
-11.9479 42.2901 75.2064 -0.588278 -0.0561075 0.80671
-11.5129 43.6006 75.5483 -0.537262 -0.0508612 0.84188
-11.0287 44.5578 75.9169 -0.502901 -0.0490053 0.861968
-10.6058 45.5322 76.1827 -0.499885 -0.00918168 0.86604
-10.1061 46.384 76.4775 -0.498458 -0.00563207 0.866894
-9.18574 47.1642 76.993 -0.466927 0.00376236 0.884288
-8.11181 47.8408 77.5575 -0.439346 -0.0186174 0.897359
-7.25631 48.3815 77.909 -0.361269 -0.013201 0.93232
-5.79406 49.2072 78.4453 -0.319715 -0.00190635 0.947486
-4.83731 49.7198 78.7627 -0.257715 -0.0281887 0.965238
-3.70097 50.2103 79.0408 -0.213922 -0.0371265 0.97613
-2.67609 50.4918 79.2006 -0.145673 0.00461873 0.989322
-1.36487 50.7532 79.3075 -0.0452226 -0.00633579 0.998933
-0.194878 50.8349 79.3529 -0.0250574 -0.0145435 0.999489
0.941556 50.8389 79.3409 0.0388779 0.0123328 0.999165
2.05769 50.8191 79.2944 0.0768523 -0.0080484 0.996214
3.08305 50.7385 79.1609 0.150187 -0.00332492 0.988651
4.55894 50.3427 78.8366 0.269254 -0.0229823 0.962781
5.52681 49.7589 78.5364 0.279456 -0.0351091 0.959513
6.59611 48.754 78.1114 0.352216 -0.0205068 0.93569
7.32591 48.0368 77.8157 0.34449 -0.0397942 0.937945
8.30564 47.2669 77.3694 0.441303 -0.00653072 0.897334
9.27106 46.5969 76.8466 0.469086 -0.0435248 0.882079
10.2138 46.0258 76.3211 0.472461 -0.0196488 0.881117
11.507 45.2953 75.5246 0.55454 -0.0297501 0.831624
12.3104 44.765 74.9937 0.566324 -0.00294926 0.823888
13.1563 44.0939 74.3774 0.586773 -0.0104487 0.809682
13.9708 43.1861 73.7462 0.61803 -0.0150768 0.786009
14.6122 42.1967 73.1815 0.6318 -0.0437285 0.773897
15.088 40.8574 72.7374 0.640616 0.00486255 0.766874
15.3025 39.8866 72.5921 0.660963 0.0341163 0.749642
15.4395 38.5053 72.5272 0.662943 0.0285756 0.748124
15.3784 37.4889 72.5865 0.625814 -0.0173642 0.779778
14.8442 35.8703 72.9964 0.590545 0.019473 0.806752
14.0777 35.1507 73.5525 0.576485 0.0110583 0.817033
13.0101 34.7517 74.2693 0.514651 -0.0369949 0.856352
11.929 34.6216 74.8978 0.486939 -0.0602575 0.871091
10.5743 35.05 75.6549 0.471928 -0.0683487 0.878984
9.62448 35.6958 76.1609 0.417382 -0.065516 0.906365
8.8794 36.4167 76.5549 0.404648 -0.0656077 0.912029
8.14215 37.1168 76.9302 0.401024 -0.067108 0.913606
7.27345 37.8124 77.3538 0.337318 -0.0589727 0.937857
6.34966 38.2835 77.6627 0.284975 -0.0681781 0.956106
4.97462 38.5707 78.0886 0.283446 -0.0648225 0.956795
3.75007 38.5306 78.4486 0.282972 -0.0642021 0.956977
2.74615 38.1773 78.5403 0.0980351 -0.0955848 0.990574
1.62109 37.872 78.6104 0.0627579 -0.0969343 0.99331
0.19508 37.9042 78.7024 0.0572889 -0.091523 0.994131
0.024064 37.8977 78.7028 -0.0459608 -0.0922184 0.994658
0.108389 37.1467 78.6299 0.00602495 -0.102297 0.993364
-1.53996 36.8427 78.5216 -0.0484894 -0.0994725 0.993855
-3.02343 36.5323 78.2995 -0.126978 -0.130385 0.983297
-4.01558 36.21 78.0699 -0.199871 -0.142742 0.969342
-5.35102 35.7115 77.6724 -0.316251 -0.117609 0.941357
-6.39656 35.4033 77.2798 -0.338584 -0.0842357 0.937157
-7.62474 35.4589 76.8418 -0.337495 -0.078766 0.938025
-8.85962 35.5762 76.3535 -0.393562 -0.083656 0.915479
-9.75055 35.9479 75.9925 -0.402303 -0.0803805 0.91197
-11.1893 36.8159 75.3069 -0.50196 -0.0542469 0.863186
-11.9194 37.5543 74.9387 -0.53429 -0.0610853 0.842449
-12.2177 38.5911 74.8022 -0.562379 -0.0482145 0.825454
-12.4325 39.6171 74.7058 -0.579019 -0.0347628 0.814396
-12.6092 40.732 74.6422 -0.588425 -0.0367852 0.807697
-12.6076 41.9983 74.7051 -0.588264 -0.0562125 0.806713
-12.4667 42.9712 74.8757 -0.607151 -0.0330493 0.793216
-12.0131 44.2074 75.2241 -0.589845 0.0104326 0.807435
-11.3134 45.6594 75.745 -0.599779 -0.0245423 0.799789
-10.8146 46.7079 76.0723 -0.498292 -0.0056955 0.866989
-10.0211 47.4386 76.5313 -0.498139 -0.00429576 0.867086
-9.03738 48.134 77.0683 -0.470643 -0.013533 0.882064
-8.09376 48.7559 77.5869 -0.415432 -0.0203074 0.90733
-6.53418 49.6321 78.2162 -0.335468 -0.0342495 0.940994
-5.63169 50.1386 78.5309 -0.311109 -0.0380073 0.949613
-4.36957 50.8341 78.9175 -0.251277 -0.0268359 0.96681
-3.27292 51.1494 79.1096 -0.148792 0.00588324 0.988846
-2.26671 51.3966 79.2578 -0.134386 -0.00417327 0.990831
-1.24737 51.5534 79.3215 -0.044697 -0.0224215 0.998713
-0.151103 51.5681 79.3628 -0.031159 -0.0123985 0.999407
0.986187 51.5534 79.3434 0.0375277 -0.036756 0.998615
2.11489 51.5355 79.2964 0.0779125 -0.0096042 0.995896
3.23316 51.4683 79.1406 0.157999 0.00124043 0.987381
4.49356 51.2101 78.8751 0.23168 -0.0126216 0.972394
5.46513 50.7805 78.5877 0.313125 -0.0188772 0.948792
6.40086 49.9926 78.2153 0.351327 -0.0259033 0.935894
7.28116 49.1158 77.859 0.353278 -0.0179814 0.935342
8.43267 48.0661 77.313 0.434404 -0.0356263 0.899503
9.20108 47.5248 76.9278 0.457453 -0.0230998 0.888655
10.3507 46.7885 76.2697 0.485351 -0.0357499 0.873578
11.6199 46.0881 75.4763 0.555354 -0.0283767 0.83113
12.4501 45.5538 74.9022 0.567475 -0.0211948 0.82308
13.3039 44.9287 74.2859 0.575084 -0.0231637 0.817767
14.0567 44.1588 73.6972 0.611803 -0.026879 0.790386
14.7937 43.2758 73.0952 0.627752 -0.0302295 0.777675
15.535 41.6429 72.4071 0.625518 -0.042271 0.779064
15.917 39.8617 72.0507 0.642866 0.00741437 0.765088
16.0133 38.8304 72.0025 0.675001 0.0278214 0.737292
16.0478 37.725 72.0102 0.664783 0.0456261 0.745284
15.8756 36.715 72.215 0.616146 0.0254965 0.786535
15.4851 35.5777 72.5343 0.591977 0.0231519 0.805622
14.8332 34.7171 73.0266 0.57826 0.0154101 0.81569
13.6205 34.1055 73.8837 0.531339 -0.0148572 0.845313
12.7694 33.8624 74.3529 0.505931 -0.0576946 0.860642
11.73 33.8708 74.95 0.468973 -0.0635674 0.880921
10.776 34.1246 75.4715 0.465661 -0.0684307 0.882287
9.61205 34.7589 76.0937 0.421061 -0.0741575 0.903996
8.8691 35.3849 76.4848 0.404795 -0.0670818 0.911865
8.18977 36.0553 76.8246 0.393081 -0.0659053 0.917139
7.32141 36.823 77.264 0.342012 -0.0752383 0.934798
6.4645 37.4266 77.566 0.282724 -0.0733414 0.956393
5.55891 37.7459 77.8578 0.284442 -0.0719627 0.955986
4.29672 37.8116 78.2366 0.282636 -0.0677415 0.956832
3.1323 37.5169 78.4374 0.0998423 -0.0973241 0.990227
1.88825 37.0126 78.5094 0.0960317 -0.0978822 0.99055
0.556023 37.1148 78.6004 0.0583883 -0.102566 0.993011
0.892716 36.3037 78.4966 0.0582106 -0.103292 0.992946
1.90453 36.2049 78.4388 0.0757462 -0.0853987 0.99308
2.86272 36.5125 78.3652 0.103445 -0.0843509 0.991052
3.83097 36.9041 78.3061 0.097751 -0.0995981 0.990215
5.61246 36.9976 77.7858 0.286456 -0.0715062 0.955421
6.53595 36.4568 77.4694 0.285686 -0.0789594 0.955065
7.3431 35.7385 77.1669 0.343244 -0.0778094 0.93415
8.06364 35.1194 76.8113 0.389455 -0.073277 0.918089
8.83979 34.2038 76.4017 0.401037 -0.0866528 0.911842
9.98248 33.4586 75.8074 0.40075 -0.0656569 0.913439
10.9192 33.128 75.3309 0.469306 -0.0528967 0.881441
11.9547 32.9639 74.7654 0.463764 -0.0446228 0.884713
13.0101 33.0856 74.1836 0.48837 -0.0365645 0.871869
14.3862 33.5882 73.3611 0.563136 0.00302466 0.826292
15.4627 34.2564 72.601 0.563252 0.0531419 0.824573
16.0519 35.1641 72.1344 0.57442 0.0598998 0.816277
16.5075 36.8376 71.6812 0.640135 0.0332904 0.767534
16.7985 37.9381 71.3392 0.653148 0.0640205 0.754517
16.5448 39.1784 71.5028 0.675384 0.0274557 0.736955
16.4892 40.2929 71.5245 0.671213 0.00243476 0.741093
16.2121 41.4736 71.8424 0.666775 -0.0207688 0.743942
15.911 42.4209 72.1326 0.655083 -0.0211375 0.754851
15.478 43.4817 72.5354 0.657785 -0.0178232 0.752596
14.4746 44.6869 73.4011 0.613307 -0.0407196 0.788793
13.9579 45.4656 73.841 0.593988 -0.0308956 0.803498
12.6032 46.3336 74.8165 0.573979 -0.0235922 0.81853
11.849 46.7765 75.3391 0.561271 -0.019967 0.827391
11.1751 47.4427 75.8056 0.53659 -0.00549104 0.843344
9.99089 47.9905 76.5019 0.507719 0.0085355 0.861478
8.97802 48.5457 77.0902 0.431102 -0.0713092 0.899449
8.24096 49.1469 77.4834 0.405103 -0.0497425 0.912249
7.41284 50.1151 77.8347 0.364233 -0.0275635 0.930894
6.31925 51.1221 78.2784 0.349032 -0.0249886 0.936774
5.56338 51.712 78.5737 0.312341 -0.0173666 0.949033
4.21922 52.1445 78.9467 0.253326 -0.00924748 0.967292
2.98199 52.3469 79.1819 0.140583 0.00357748 0.989543
1.80779 52.3526 79.3169 0.11432 0.0216344 0.993208
0.61371 52.3594 79.3877 0.0071819 -0.0236853 0.999014
-0.590252 52.3705 79.3574 -0.0252376 -0.00617836 0.999662
-1.76626 52.3517 79.3156 -0.0796968 -0.00641313 0.99584
-2.87222 52.0848 79.1786 -0.134386 -0.00417327 0.990831
-3.92053 51.8222 79.0205 -0.178518 -0.00249771 0.983396
-5.02937 51.4226 78.7407 -0.282348 -0.0463398 0.958192
-6.18383 50.7876 78.3769 -0.297843 -0.0269411 0.95406
-7.08402 50.1024 78.0184 -0.364195 -0.0332726 0.930728
-8.27834 49.636 77.5195 -0.427334 -0.0205646 0.902837
-9.03845 48.9845 77.0962 -0.469018 -0.0281853 0.882714
-10.006 48.4944 76.5514 -0.48913 -0.0230519 0.871894
-10.8954 47.8199 76.0401 -0.487838 -0.0188194 0.872732
-11.6746 47.1136 75.5125 -0.612172 -0.0258734 0.790195
-11.8764 46.1039 75.3365 -0.599892 -0.0255543 0.799672
-12.2423 45.2103 75.039 -0.591062 -0.00440324 0.806388
-12.9238 43.7127 74.5175 -0.62689 -0.00333129 0.779093
-13.231 42.0302 74.2527 -0.60721 -0.0312227 0.793194
-13.3284 40.8321 74.0867 -0.66436 -0.0565059 0.745262
-12.974 39.2613 74.3193 -0.61005 -0.0236348 0.790527
-12.5797 37.6856 74.5014 -0.561442 -0.0496858 0.826012
-12.3969 36.5086 74.5594 -0.542016 -0.0564065 0.838244
-11.3524 36.0797 75.1645 -0.508254 -0.0537134 0.85951
-10.5709 35.4603 75.5628 -0.42141 -0.0765099 0.903596
-9.68206 34.9516 75.9316 -0.420903 -0.0675123 0.904377
-8.73486 34.7702 76.3357 -0.396705 -0.0818554 0.914277
-7.195 34.677 76.9291 -0.336029 -0.0789845 0.938533
-6.21164 34.5927 77.2627 -0.315158 -0.0932615 0.944375
-4.65616 35.045 77.8219 -0.248957 -0.112467 0.959396
-3.2237 35.6962 78.1525 -0.18606 -0.120468 0.974869
-1.808 36.0409 78.4113 -0.148655 -0.0980415 0.983989
-0.734566 36.2881 78.5037 -0.041954 -0.0868787 0.995329
-0.621533 36.3018 78.5097 -0.0449045 -0.0970276 0.994259
0.0936939 36.3055 78.5434 0.00580395 -0.102399 0.993361
