-5.61035 42.828 79.4306 -0.325138 -0.0704916 0.943035
-5.40843 42.7438 79.4938 -0.281351 -0.0862354 0.954539
-5.39205 42.0071 79.421 -0.24013 -0.0854631 0.966846
-6.43847 41.7323 79.0855 -0.308312 -0.0460507 0.95017
-6.83043 42.2283 78.986 -0.307752 -0.0555292 0.949845
-6.55559 43.2448 79.1354 -0.316389 -0.0635101 0.946438
-5.32705 44.1847 79.6388 -0.278614 -0.0757479 0.956178
-3.83732 44.8264 79.9925 -0.155272 -0.0806483 0.984479
-2.14143 45.2907 80.2725 -0.135686 -0.0764624 0.987769
-0.84546 45.4235 80.4062 -0.0830411 -0.0409899 0.995702
0.865317 45.4677 80.4593 0.0567891 -0.0367499 0.997163
2.08672 45.4599 80.3613 0.131803 -0.0450919 0.988726
3.0875 45.1255 80.1585 0.187501 -0.0358203 0.981609
3.98771 44.6118 79.9649 0.190648 -0.0376909 0.980934
4.14405 43.5583 79.8849 0.281367 -0.0430408 0.958579
2.52882 43.4448 80.177 0.175754 -0.0684098 0.982044
1.32998 43.2305 80.2697 0.0738292 -0.0771183 0.99427
0.17406 43.1233 80.2867 -0.0376403 -0.0688017 0.996893
-1.18778 43.017 80.216 -0.102045 -0.0820576 0.990961
-2.44701 42.7753 80.0373 -0.127956 -0.067439 0.989484
-3.41483 42.5455 79.8905 -0.135824 -0.0712257 0.988168
-4.77858 42.2076 79.5931 -0.243028 -0.100449 0.964796
-4.88865 42.1562 79.5604 -0.238643 -0.101593 0.965778
-4.83911 41.4187 79.517 -0.239632 -0.070181 0.968319
-3.86705 41.6849 79.7653 -0.13971 -0.0675867 0.987881
-2.29887 42.0346 80.0062 -0.131211 -0.0684347 0.988981
-1.28758 42.2166 80.1305 -0.0781897 -0.096644 0.992242
-0.238268 42.348 80.2245 -0.0549295 -0.0778023 0.995047
0.924259 42.4645 80.2351 0.0712126 -0.083509 0.993959
2.27817 42.6258 80.1496 0.0768129 -0.0786885 0.993919
3.66119 42.8075 79.9398 0.166748 -0.0478694 0.984837
4.6876 42.9797 79.6978 0.275949 -0.0521969 0.959754
5.92427 43.0099 79.3013 0.335515 -0.0433389 0.94103
6.59347 42.958 79.0582 0.3383 -0.0412648 0.940133
7.08894 43.2374 78.8935 0.356088 -0.0528182 0.932595
6.43909 43.9496 79.1586 0.332251 -0.0485821 0.941939
5.57669 44.4203 79.4804 0.295451 -0.0365949 0.954656
4.75569 45.0328 79.7581 0.291768 -0.0372728 0.955763
3.80071 45.6285 80.0393 0.18909 -0.0354148 0.981319
2.92028 46.0688 80.2232 0.187989 -0.0339762 0.981583
1.85906 46.2365 80.427 0.131803 -0.0450919 0.988726
0.343791 46.2066 80.4848 0.0363357 -0.00844269 0.999304
-0.763011 46.1686 80.4435 -0.0813608 -0.0387187 0.99593
-1.94739 46.1071 80.3524 -0.108825 -0.0597953 0.991414
-2.98402 45.947 80.1896 -0.145425 -0.0518508 0.988009
-4.1027 45.5862 80.0052 -0.16931 -0.0415752 0.984358
-5.02239 45.2 79.7676 -0.238694 -0.05135 0.969736
-5.98788 44.6151 79.4574 -0.324741 -0.0915548 0.94135
-6.81787 43.9556 79.1021 -0.360183 -0.0767005 0.928822
-7.49014 43.2411 78.7959 -0.387334 -0.0244469 0.921614
-8.19003 41.8613 78.4361 -0.421633 -0.0616694 0.904584
-7.89036 40.8929 78.4962 -0.430486 -0.0808832 0.898966
-6.8195 40.8631 78.9137 -0.360422 -0.105447 0.92681
-5.85987 41.1188 79.2435 -0.308312 -0.0460507 0.95017
-4.95909 41.3829 79.4843 -0.238823 -0.0654775 0.968834
-4.90801 40.6477 79.4525 -0.235208 -0.0579947 0.970213
-5.9307 40.3413 79.1811 -0.274348 -0.055733 0.959325
-7.01828 40.0411 78.7428 -0.360422 -0.105447 0.92681
-8.09814 39.9817 78.3152 -0.395802 -0.0936385 0.912692
-8.89988 40.6916 77.9886 -0.449024 -0.0973341 0.888202
-8.97385 41.8839 78.0676 -0.429576 -0.0653835 0.900511
-8.62163 42.8934 78.2885 -0.427071 -0.0475194 0.902968
-7.92537 43.8839 78.6297 -0.390816 -0.037153 0.919634
-7.25204 44.5743 78.9539 -0.390821 -0.0550466 0.918811
-6.01844 45.4795 79.5197 -0.378525 -0.0575431 0.923723
-5.04942 46.0092 79.8283 -0.241115 -0.0843577 0.966809
-3.96448 46.474 80.0687 -0.173902 -0.0569072 0.982975
-2.65455 46.8198 80.2885 -0.151976 -0.0620427 0.986425
-1.15597 46.9114 80.4574 -0.0645463 -0.0623174 0.99596
0.67906 46.9737 80.4966 0.0198643 -0.0556862 0.998249
2.48477 46.9608 80.3438 0.167051 -0.0307497 0.985267
3.45898 46.7353 80.1496 0.186351 -0.0425524 0.981561
4.66011 46.0206 79.8243 0.298138 -0.0552838 0.952689
5.59973 45.3876 79.5094 0.298144 -0.0356118 0.953856
6.47788 44.7595 79.1866 0.330329 -0.0444435 0.94281
7.31087 44.1564 78.8601 0.360676 -0.0488443 0.931091
8.59889 43.3141 78.2772 0.378485 -0.0447241 0.924471
9.50366 42.7834 77.7966 0.483906 -0.0250225 0.874762
10.3973 42.2457 77.2863 0.48587 -0.0268311 0.873599
11.3513 41.4706 76.729 0.487884 -0.0298011 0.872374
12.0747 40.6083 76.2406 0.54078 -0.0386304 0.840275
12.4737 39.1438 75.9367 0.533275 -0.0131898 0.845839
11.4281 39.3522 76.5983 0.537057 -0.0264704 0.843016
10.6271 39.8473 77.0806 0.479001 -0.0216431 0.877547
9.89361 40.4 77.4944 0.481029 -0.0280957 0.876226
9.09941 40.9897 77.9178 0.440965 -0.0271995 0.897109
8.28962 41.5134 78.3309 0.441553 -0.0443157 0.895994
6.75886 42.1094 78.9609 0.351921 -0.0524706 0.934499
5.76697 42.214 79.3215 0.319602 -0.0539451 0.94584
4.7547 42.1954 79.6352 0.278378 -0.0530754 0.959002
3.29958 42.0064 79.9621 0.161041 -0.0567156 0.985263
1.95747 41.8181 80.1157 0.0640021 -0.0637818 0.995909
0.575438 41.6753 80.1938 0.0666852 -0.0735398 0.995
-0.839878 41.51 80.0998 -0.0785038 -0.0431996 0.995977
-1.95479 41.3298 80.0015 -0.0896322 -0.0476861 0.99478
-3.05888 41.1005 79.8395 -0.135904 -0.0660319 0.988516
-4.22603 40.8273 79.6282 -0.237082 -0.0614236 0.969537
-4.04611 40.112 79.6337 -0.20144 -0.0538103 0.977305
-2.47361 40.465 79.8985 -0.142555 -0.048472 0.988566
-1.47665 40.6263 80.0109 -0.0896322 -0.0476861 0.99478
-0.428992 40.7785 80.1005 -0.0785038 -0.0431996 0.995977
0.583851 40.9129 80.1483 0.0199907 -0.070309 0.996236
1.66584 41.0089 80.083 0.0653756 -0.060577 0.996016
2.95859 41.1929 79.9602 0.146777 -0.0650208 0.98703
3.94425 41.3324 79.8159 0.218437 -0.0702822 0.971166
5.39791 41.4671 79.3871 0.293073 -0.0702231 0.953508
6.43117 41.3849 79.0356 0.341357 -0.0577663 0.938151
7.57788 40.9902 78.5934 0.362939 -0.0340493 0.931188
8.71331 40.4046 78.0701 0.414759 -0.0593096 0.907995
9.48807 39.8651 77.6877 0.435385 -0.0440218 0.898679
10.2359 39.284 77.2655 0.461397 -0.0498407 0.885792
11.4566 38.4697 76.5483 0.506755 -0.0563346 0.860247
12.394 38.204 75.9703 0.552186 -0.0206174 0.833136
13.2535 39.348 75.4083 0.57115 -0.025962 0.820435
12.9703 40.4891 75.6307 0.582342 -0.0113427 0.812663
12.4651 41.4196 75.9856 0.566954 -0.00409606 0.823736
11.8356 42.0691 76.4437 0.548177 -0.0226901 0.835408
11.0205 42.7605 76.9501 0.50664 -0.0151752 0.861755
9.89225 43.4518 77.6004 0.485723 -0.0264132 0.873708
9.02036 43.9607 78.1019 0.45582 -0.020359 0.889184
7.62711 44.8901 78.7721 0.405687 -0.0326562 0.912835
6.74881 45.5038 79.1241 0.333724 -0.041538 0.941742
5.68208 46.2923 79.5179 0.302816 -0.0563339 0.951152
4.6616 46.9461 79.8975 0.303302 -0.0752618 0.949917
3.20882 47.6634 80.2353 0.210895 -0.04006 0.976615
1.94402 47.746 80.4402 0.145573 -0.00944136 0.989252
0.835972 47.7286 80.5352 -0.00195371 -0.0250564 0.999077
-0.38887 47.6814 80.5073 -0.029345 0.00153232 0.999547
-2.27625 47.6344 80.3907 -0.0707804 -0.0337326 0.996616
-3.41435 47.4851 80.21 -0.161225 -0.0642159 0.984801
-4.40898 47.1287 80.0274 -0.184035 -0.0458954 0.981491
-6.02509 46.3467 79.5711 -0.275172 -0.0582976 0.959545
-6.95869 45.7495 79.1478 -0.393851 -0.0539755 0.917586
-7.98037 44.9174 78.6629 -0.393115 -0.0512622 0.918059
-8.76651 44.0181 78.2785 -0.407745 -0.0416275 0.911941
-9.42493 42.9147 77.8988 -0.454995 -0.0387249 0.889651
-9.72062 41.877 77.6971 -0.472547 -0.0698318 0.878342
-9.72854 40.8713 77.5896 -0.44879 -0.0974369 0.88831
-9.44232 39.8853 77.6262 -0.45006 -0.0842269 0.88892
-8.37569 39.1774 78.1186 -0.409025 -0.0802166 0.90765
-7.26061 39.1899 78.5609 -0.361973 -0.0944722 0.927389
-6.12659 39.4909 79.0343 -0.327646 -0.105562 0.938125
-4.9845 39.8638 79.3809 -0.245472 -0.0702525 0.966826
-4.53066 39.9852 79.5084 -0.245274 -0.0592979 0.967554
-4.15301 39.3119 79.5649 -0.21887 -0.0583305 0.972731
-3.18694 39.5521 79.7447 -0.153069 -0.0592754 0.986359
-2.18 39.7565 79.8999 -0.118405 -0.0511274 0.991433
-1.09516 39.9163 80.01 -0.0856412 -0.0473531 0.995169
-0.0751098 40.0453 80.0626 -0.0247261 -0.0777058 0.99667
1.55348 40.2214 80.044 0.0706188 -0.0823499 0.994019
2.63503 40.3729 79.954 0.135725 -0.0792538 0.987414
3.80167 40.5449 79.7857 0.155452 -0.0660808 0.985631
5.14178 40.672 79.4071 0.2903 -0.0751334 0.953966
6.30834 40.6251 79.0337 0.305883 -0.0569446 0.950358
7.66071 40.1574 78.5328 0.388823 -0.0445075 0.919737
8.48932 39.6957 78.1295 0.409168 -0.0380942 0.911663
9.31357 39.1335 77.7363 0.434719 -0.0447462 0.898988
10.0761 38.5319 77.3066 0.459451 -0.0480142 0.886905
10.8213 37.9673 76.8896 0.483331 -0.0530785 0.873421
11.7177 37.5198 76.335 0.50329 -0.0463418 0.862872
12.6083 37.4113 75.7779 0.562828 -0.0507788 0.825012
13.5155 37.7874 75.1683 0.573089 -0.0342696 0.818776
13.9456 38.7131 74.9057 0.597813 0.004974 0.799849
13.7647 40.2349 75.0388 0.592933 0.00280568 0.805245
13.3023 41.4447 75.4055 0.583365 -0.0105628 0.811944
12.7843 42.2308 75.786 0.575343 -0.0356933 0.817133
11.7741 43.1224 76.489 0.524381 -0.00536505 0.851467
10.8192 43.8128 77.0927 0.508572 -0.0309202 0.860263
10.041 44.2593 77.545 0.485807 -0.02965 0.873563
9.23702 44.7137 78.0076 0.456927 -0.0194977 0.888636
8.45041 45.2518 78.389 0.437758 -0.0584854 0.897188
7.3553 46.0174 78.919 0.354661 -0.0408431 0.934038
6.35545 46.7898 79.313 0.34164 -0.0419154 0.938809
5.5375 47.3282 79.6469 0.324638 -0.0585252 0.943669
4.58247 47.9428 79.9491 0.213244 -0.0431643 0.975945
3.26784 48.4487 80.2645 0.207984 -0.0499245 0.976838
2.22312 48.4942 80.4144 0.139074 -0.0270483 0.989907
0.404199 48.4725 80.5233 -0.0270114 -0.00441429 0.999591
-1.33864 48.4469 80.4764 -0.0358912 0.00518529 0.999325
-2.36846 48.3981 80.4259 -0.100326 -0.0537065 0.992454
-4.093 48.1141 80.134 -0.17005 -0.0610158 0.983543
-4.99679 47.6921 79.9234 -0.213551 -0.0418885 0.976011
-5.94615 47.2289 79.6388 -0.290514 -0.0387779 0.956061
-6.87621 46.7076 79.2415 -0.391059 -0.0516964 0.918903
-7.81885 46.0463 78.7961 -0.407105 -0.0546119 0.91165
-8.65758 45.3164 78.3849 -0.418064 -0.0456144 0.907218
-9.51076 44.2702 77.9178 -0.453349 -0.0572583 0.889492
-10.1736 43.022 77.5188 -0.471164 -0.0421639 0.880963
-10.4381 41.8829 77.3099 -0.480984 -0.0513434 0.875219
-10.4396 40.8178 77.205 -0.471049 -0.0875657 0.87775
-10.2753 39.8188 77.192 -0.483601 -0.0679219 0.872222
-9.76287 38.9446 77.3892 -0.445221 -0.0747428 0.892263
-8.92741 38.4694 77.778 -0.448345 -0.0901623 0.889138
-7.77229 38.3326 78.2674 -0.366881 -0.0991298 0.924971
-6.35282 38.6246 78.8573 -0.329145 -0.105954 0.937625
-5.38482 38.9605 79.1983 -0.293019 -0.115399 0.949116
-4.754 39.1535 79.3901 -0.259786 -0.0594828 0.963754
-4.37106 38.4691 79.4524 -0.289237 -0.0935538 0.952649
-3.24747 38.7792 79.6793 -0.154714 -0.0887851 0.983943
-1.78849 39.0625 79.8862 -0.0931656 -0.0816521 0.992292
-0.68821 39.2117 79.9867 -0.0468244 -0.0801873 0.995373
1.13493 39.4394 80.0082 0.0404735 -0.074354 0.995767
2.19716 39.5464 79.9312 0.103335 -0.0921872 0.990121
3.4263 39.7203 79.7885 0.144651 -0.0819791 0.985913
4.47167 39.8685 79.5414 0.279632 -0.0711949 0.957415
6.09247 39.874 79.0559 0.299447 -0.0632652 0.952013
7.27799 39.5229 78.6544 0.304333 -0.0639834 0.950414
8.31348 38.9739 78.1782 0.409168 -0.0380942 0.911663
9.1658 38.3725 77.7699 0.434719 -0.0447462 0.898988
9.94176 37.7383 77.3333 0.459451 -0.0480142 0.886905
10.715 37.1482 76.8987 0.483331 -0.0530785 0.873421
11.4963 36.7412 76.4206 0.502605 -0.048 0.863183
12.7314 36.5981 75.6465 0.55821 -0.0360845 0.828828
13.6835 36.9327 75.0248 0.561257 -0.0245228 0.827219
14.3675 37.7627 74.5795 0.566769 -0.0302002 0.823323
14.5814 38.9203 74.3796 0.634818 0.00875959 0.771892
14.4271 40.3214 74.5493 0.618319 -0.00890597 0.785155
14.1403 41.2564 74.7693 0.62871 0.0182521 0.777425
13.6441 42.2701 75.1727 0.611902 -0.0360623 0.789466
12.5442 43.4885 76.0113 0.583266 -0.030023 0.811641
11.832 44.0411 76.4804 0.524799 -0.0386415 0.850348
10.9862 44.6048 77.0185 0.494523 -0.0222979 0.868879
9.4653 45.4583 77.9058 0.490091 -0.0259986 0.871263
8.64135 46.0287 78.3465 0.437758 -0.0584854 0.897188
7.54061 46.8657 78.8956 0.379489 -0.0406971 0.923857
6.34514 47.7298 79.3664 0.351636 -0.0486588 0.934871
5.3922 48.3655 79.7532 0.335118 -0.0427012 0.941081
4.53442 48.9447 80.0134 0.222341 -0.0478289 0.973795
3.3834 49.1936 80.2736 0.204265 -0.0473394 0.977762
2.28751 49.2473 80.4288 0.124157 -0.0427923 0.991339
0.720295 49.2288 80.5481 -0.0215154 -0.0130438 0.999629
-0.458881 49.2047 80.506 -0.0363405 -0.0269352 0.998958
-1.82424 49.1823 80.45 -0.0409532 0.00890865 0.999121
-2.84184 49.14 80.407 -0.092224 -0.029175 0.993323
-3.82463 49.0114 80.235 -0.17708 -0.036441 0.983508
-5.24726 48.4236 79.8768 -0.300432 -0.011631 0.953731
-6.15795 47.9787 79.5848 -0.330943 -0.00786375 0.943046
-6.98601 47.5238 79.2436 -0.389913 -0.0550898 0.919186
-7.81288 47.0092 78.8565 -0.407105 -0.0546119 0.91165
-8.82586 46.1758 78.3469 -0.419008 -0.0376654 0.907152
-9.54371 45.4141 77.9702 -0.442709 -0.0452079 0.895447
-10.183 44.5779 77.5954 -0.454271 -0.0600322 0.888833
-10.6773 43.7118 77.2824 -0.471164 -0.0421639 0.880963
-11.0053 42.7365 77.0463 -0.541348 -0.0256075 0.840409
-11.1551 41.7175 76.9035 -0.480849 -0.0690183 0.873936
-11.0389 39.9542 76.7833 -0.483456 -0.0947966 0.87022
-10.7672 38.8837 76.8762 -0.482484 -0.0416907 0.874909
-9.99577 38.0846 77.1938 -0.450572 -0.0789935 0.889207
-8.76303 37.6443 77.7606 -0.442025 -0.105588 0.890757
-7.47418 37.5553 78.3019 -0.366808 -0.0997067 0.924938
-6.51617 37.7829 78.7054 -0.338691 -0.103735 0.934796
-5.52439 38.1074 79.0562 -0.307749 -0.0939093 0.946803
-5.04121 38.2733 79.2327 -0.297706 -0.098227 0.949482
-4.93629 37.505 79.1884 -0.299956 -0.0844048 0.950187
-6.44146 36.9951 78.6451 -0.338691 -0.103735 0.934796
-7.4022 36.7805 78.2436 -0.363284 -0.105527 0.925683
-8.44895 36.7779 77.826 -0.410486 -0.0776461 0.908233
-9.73617 37.0846 77.2507 -0.419001 -0.0526548 0.906454
-10.9884 37.8303 76.6946 -0.451208 -0.0648636 0.889731
-11.5503 38.8611 76.44 -0.553588 -0.0810365 0.828781
-11.779 40.2748 76.4036 -0.533371 -0.0698054 0.840917
-11.8162 41.5959 76.4467 -0.576863 -0.05361 0.815009
-11.5243 43.3943 76.7321 -0.541348 -0.0256075 0.840409
-10.9697 44.6466 77.1447 -0.536265 -0.0406649 0.843069
-10.2764 45.6876 77.6113 -0.454073 -0.0475812 0.889692
-9.59093 46.4996 77.9987 -0.448391 -0.0347196 0.892794
-8.65075 47.3124 78.4863 -0.426316 -0.0522993 0.903031
-7.8069 47.9191 78.9139 -0.407691 -0.0548466 0.911365
-6.99254 48.3872 79.2622 -0.365731 -0.00443647 0.930708
-6.158 48.8327 79.5912 -0.335287 -0.00614823 0.941572
-4.49793 49.6292 80.1321 -0.307281 -0.00816172 0.951584
-3.42085 49.8665 80.3386 -0.145227 -0.0159626 0.988651
-2.29868 49.9316 80.4492 -0.0424725 -0.0309108 0.998617
-1.19917 49.9564 80.4987 -0.0436279 -0.0310174 0.998565
-0.0560548 49.9685 80.545 -0.0344469 -0.0325321 0.998877
1.12039 49.9716 80.5687 0.00446129 -0.0274589 0.999498
2.34336 49.9972 80.4542 0.131049 -0.0225276 0.991008
3.57368 49.9688 80.2531 0.184457 -0.00799218 0.982808
4.87974 49.7384 79.9718 0.275183 -0.0347827 0.959266
5.93345 48.9416 79.5863 0.325861 -0.0287488 0.944976
7.14648 48.1238 79.0856 0.360023 -0.0495595 0.931581
7.94287 47.5507 78.7277 0.403109 -0.0085276 0.915099
9.06955 46.6545 78.1708 0.442874 -0.0538397 0.894964
9.89139 46.0799 77.6827 0.498336 -0.031096 0.866401
10.6881 45.6493 77.2164 0.49428 -0.0271318 0.868879
11.6631 45.091 76.6329 0.548509 -0.0211457 0.835153
12.5167 44.4571 76.0349 0.572556 -0.00150188 0.819864
13.253 43.8562 75.499 0.591033 -0.0119933 0.806558
13.9913 43.0324 74.9383 0.611758 -0.035046 0.789723
14.4253 42.1981 74.5272 0.631049 -0.0526486 0.773953
14.8144 41.3171 74.2228 0.62871 0.0182521 0.777425
15.0776 40.2273 73.991 0.655181 -0.00805844 0.755428
15.209 39.066 73.8566 0.639216 0.0101203 0.768268
15.0005 37.3791 74.1126 0.653424 0.0286462 0.75645
14.4876 36.5648 74.46 0.566728 -0.0212776 0.82363
13.0851 35.8265 75.3875 0.548433 -0.0379999 0.835222
11.8256 35.8518 76.1723 0.499246 -0.0578076 0.86453
10.8748 36.1753 76.7414 0.497785 -0.0580111 0.865358
10.0817 36.6988 77.1744 0.438082 -0.0693866 0.896168
9.34181 37.3156 77.594 0.439426 -0.0800565 0.894704
8.53753 37.9624 78.0089 0.388282 -0.0733499 0.918617
7.59755 38.5581 78.4531 0.38778 -0.0718665 0.918945
6.44075 39.028 78.8891 0.304333 -0.0639834 0.950414
5.37117 39.2025 79.2381 0.288213 -0.0634071 0.955392
4.23771 39.0844 79.557 0.269969 -0.0700518 0.960277
3.05181 38.8829 79.764 0.115443 -0.0607978 0.991452
2.04903 38.7183 79.8695 0.103335 -0.0921872 0.990121
0.803249 38.5998 79.9426 0.0646833 -0.100132 0.992865
-0.218204 38.5124 79.9522 -0.0464499 -0.0806832 0.995314
-1.32474 38.3896 79.8653 -0.0674739 -0.0963013 0.993063
-2.34818 38.225 79.7641 -0.121942 -0.0841551 0.988599
-3.7697 37.8656 79.5099 -0.159485 -0.0980796 0.982294
-4.56533 37.6255 79.3133 -0.294338 -0.0851011 0.951897
-4.39486 36.9152 79.3054 -0.226831 -0.0952305 0.966711
-3.3392 37.2532 79.5136 -0.154744 -0.104118 0.982451
-2.22223 37.4975 79.7164 -0.12234 -0.0919739 0.987283
-0.988855 37.7067 79.8227 -0.068692 -0.0890892 0.993652
0.0670535 37.8035 79.9043 -0.0211601 -0.106388 0.992812
1.55251 37.8742 79.8262 0.0633741 -0.0887542 0.994035
2.68875 38.0241 79.7534 0.095628 -0.0759803 0.992272
3.84346 38.2465 79.5984 0.264847 -0.0775029 0.961171
5.19746 38.4663 79.2398 0.27276 -0.07034 0.959471
6.28131 38.3298 78.8911 0.302317 -0.0671846 0.950836
7.22978 37.9542 78.5606 0.346295 -0.0714961 0.934337
8.10159 37.4003 78.148 0.388407 -0.0739224 0.918518
8.94289 36.702 77.7353 0.414182 -0.0774951 0.906463
9.83582 35.9417 77.2404 0.430623 -0.0633209 0.900308
10.7343 35.3925 76.7703 0.464954 -0.0615466 0.882406
11.5629 35.092 76.2733 0.498804 -0.057802 0.864785
12.745 35.0146 75.5583 0.54322 -0.0495688 0.838125
13.6391 35.184 74.9881 0.531409 -0.0256468 0.846203
14.8519 35.897 74.1684 0.588843 -0.0360387 0.807443
15.6887 37.4437 73.5143 0.666899 0.0334615 0.7443
15.8435 38.4258 73.3326 0.672136 0.0387136 0.739178
15.7312 39.8934 73.4194 0.672581 -0.0198865 0.739317
15.5712 40.9732 73.5664 0.656926 -0.00188901 0.75395
15.2115 42.0537 73.8794 0.643464 0.0106567 0.765149
14.7943 42.95 74.2736 0.654108 -0.0278512 0.755886
14.3201 43.795 74.712 0.629787 -0.00943995 0.776036
13.6346 44.5194 75.2286 0.59144 -0.012009 0.80626
12.5596 45.3619 76.0069 0.572923 -0.00793906 0.819547
11.7842 45.9486 76.5595 0.557878 -0.00483683 0.829652
10.316 46.7039 77.4609 0.49846 -0.0312772 0.866324
9.14406 47.544 78.1772 0.50433 -0.0256664 0.863076
7.88487 48.6071 78.8152 0.390114 -0.0689079 0.918184
6.81916 49.257 79.2715 0.35886 -0.0481344 0.93211
6.06384 49.8597 79.5664 0.325997 -0.0287419 0.944929
5.15039 50.5676 79.9035 0.306159 -0.010955 0.951513
3.96508 50.7459 80.1826 0.213646 -0.00315309 0.976791
2.88028 50.7352 80.3837 0.165523 -0.0070611 0.986034
1.65619 50.7141 80.5614 0.131049 -0.0225276 0.991008
0.406641 50.72 80.5858 -0.015326 -0.0200759 0.999411
-0.615339 50.7161 80.547 -0.0424109 -0.0308982 0.998622
-1.6709 50.7045 80.5017 -0.0433134 -0.0315081 0.998564
-2.82241 50.6787 80.4047 -0.117822 0.00694648 0.99301
-4.14252 50.5675 80.2286 -0.162909 -0.0082388 0.986115
-5.24401 50.1467 79.8956 -0.307281 -0.00816172 0.951584
-6.1583 49.6768 79.6008 -0.323616 -0.0383596 0.944634
-7.22941 49.1189 79.1798 -0.353461 -0.0254576 0.935103
-8.13872 48.5942 78.7851 -0.437271 -0.0245156 0.898994
-8.95351 48.0201 78.3709 -0.441061 -0.0287015 0.897011
-9.6805 47.429 77.9785 -0.477986 -0.0192053 0.87813
-10.4769 46.6011 77.5339 -0.500712 -0.0201316 0.8643
-11.2944 45.5035 76.9799 -0.53813 -0.0324822 0.842195
-11.8898 44.3553 76.5444 -0.537193 -0.0425389 0.842386
-12.2496 43.3385 76.2595 -0.542607 -0.0355198 0.839158
-12.4544 42.363 76.0562 -0.576059 -0.063136 0.814966
-12.4429 40.6369 75.9507 -0.584725 -0.0433533 0.810063
-12.2842 39.0495 75.9585 -0.570433 -0.0718275 0.818093
-11.9655 37.9765 76.0754 -0.5626 -0.0593234 0.824407
-11.4143 37.075 76.4009 -0.508369 -0.0559977 0.857872
-10.0579 36.4063 77.0598 -0.448891 -0.0665951 0.8907
-8.50555 35.9933 77.7146 -0.401636 -0.0995243 0.910375
-7.40727 35.9935 78.1524 -0.362109 -0.10362 0.926359
-6.40604 36.1896 78.5672 -0.338586 -0.106104 0.934565
-5.46816 36.4841 78.9118 -0.312589 -0.104871 0.944082
-4.58492 36.8535 79.2414 -0.299956 -0.0844048 0.950187
-4.43569 36.1194 79.1979 -0.247585 -0.133787 0.958271
-5.36923 35.7128 78.8482 -0.29732 -0.133335 0.945421
-6.28019 35.4134 78.518 -0.286963 -0.100048 0.952021
-7.49147 35.1947 78.0305 -0.366449 -0.0860198 0.926453
-8.44508 35.1684 77.6534 -0.382396 -0.100593 0.918258
-9.66789 35.4847 77.1563 -0.390079 -0.0782387 0.917451
-10.8853 35.8984 76.5815 -0.470947 -0.0558009 0.880395
-12.0105 36.6636 75.9774 -0.549734 -0.032244 0.834582
-12.5677 37.69 75.6498 -0.551734 -0.0333626 0.833192
-12.9209 38.8534 75.4889 -0.578987 -0.0656299 0.81269
-13.0789 40.1823 75.4654 -0.586845 -0.0402066 0.8087
-13.1071 41.3756 75.5051 -0.602182 -0.0440233 0.797075
-13.0572 42.7982 75.6338 -0.606159 -0.0481616 0.793873
-12.6535 44.1221 75.9723 -0.653698 -0.0143241 0.756617
-12.3098 45.1184 76.2858 -0.648704 -0.0229827 0.760614
-11.8518 45.9709 76.6354 -0.54059 -0.0247511 0.840922
-11.2938 46.7555 77.0171 -0.538568 -0.0249573 0.842208
-10.6115 47.5269 77.4753 -0.508952 -0.0190682 0.859863
-9.54865 48.4479 78.0797 -0.4809 -0.0249095 0.876421
-8.77506 49.0509 78.4879 -0.438235 -0.0252256 0.898505
-7.94078 49.5865 78.9071 -0.435206 -0.0228078 0.90004
-7.02397 50.0858 79.2834 -0.356943 -0.0319374 0.933546
-6.16604 50.5329 79.6329 -0.323616 -0.0383596 0.944634
-5.30619 50.9736 79.9088 -0.289295 -0.0384847 0.956464
-4.24421 51.3827 80.2119 -0.201358 0.00564522 0.977255
-3.22334 51.4291 80.3585 -0.135665 -0.0197403 0.990483
-2.09172 51.4551 80.4943 -0.105489 -0.0175356 0.994188
-1.06137 51.462 80.5547 -0.0422292 -0.0436305 0.998155
0.17037 51.4621 80.5948 0.00326491 -0.0208284 0.999778
1.44004 51.4463 80.587 0.0715861 -0.00356397 0.995204
2.77436 51.4882 80.4104 0.146568 -0.0120372 0.988759
3.83547 51.5292 80.2244 0.198187 -0.0170675 0.979708
4.89752 51.4703 79.9739 0.279687 -0.00795167 0.960058
6.28562 50.7452 79.5195 0.326925 -0.0237268 0.944722
7.58971 49.7018 78.9862 0.372016 -0.0150771 0.928103
8.57528 49.1146 78.5595 0.448459 -0.0453 0.890002
9.26771 48.416 78.1263 0.515251 -0.0280306 0.856578
10.0441 47.7408 77.6529 0.505767 -0.0160922 0.86252
10.9577 47.2208 77.0912 0.540939 -0.00992566 0.840941
12.1051 46.697 76.3478 0.559922 -0.00555924 0.828329
12.8351 46.095 75.8269 0.570048 -0.0168305 0.821426
13.6133 45.4825 75.2517 0.602815 -0.0208738 0.797424
14.5639 44.6272 74.5232 0.607801 -0.00655465 0.794062
15.1249 43.7127 74.0156 0.65514 -0.0201585 0.755239
15.5367 42.8621 73.6258 0.65532 -0.0280174 0.754831
15.932 41.9536 73.2531 0.654754 -0.0130118 0.755621
16.2639 40.6289 72.9435 0.682007 -0.018229 0.730826
16.3558 39.454 72.8039 0.688076 -0.0243254 0.725195
16.3586 37.737 72.887 0.681839 0.0364807 0.730487
16.0633 36.5474 73.2209 0.663994 0.0398051 0.746616
15.2585 35.3012 73.8685 0.582395 0.0129513 0.812798
13.899 34.3571 74.8301 0.542159 -0.00371215 0.839778
12.4346 34.214 75.7137 0.529922 -0.0252301 0.847197
11.3871 34.3475 76.3213 0.495018 -0.0670264 0.866293
10.4777 34.685 76.842 0.437037 -0.0716098 0.896548
9.61575 35.1707 77.2905 0.429595 -0.0657773 0.900623
8.88341 35.782 77.6846 0.416179 -0.0698687 0.906467
8.01021 36.5613 78.1176 0.381402 -0.083558 0.920625
7.19312 37.1527 78.5098 0.343882 -0.0849223 0.934329
6.29031 37.5946 78.8338 0.299515 -0.0751589 0.951123
5.3242 37.7786 79.15 0.282385 -0.075592 0.956194
3.54663 37.4037 79.6119 0.264057 -0.0763901 0.961476
2.33497 37.1683 79.7035 0.0799892 -0.0913955 0.992597
1.13734 37.0207 79.7769 0.0480875 -0.104188 0.993145
0.0426146 37.0628 79.8125 0.0255321 -0.121063 0.992312
-1.3134 36.9196 79.7297 -0.068692 -0.0890892 0.993652
-2.39656 36.7073 79.6212 -0.12234 -0.0919739 0.987283
-3.42896 36.4903 79.4275 -0.168167 -0.0872816 0.981887
-3.99763 36.3023 79.3129 -0.183996 -0.110554 0.976279
-3.53778 35.5471 79.3054 -0.196797 -0.128726 0.971943
-5.13136 34.9344 78.8127 -0.280693 -0.10078 0.953747
-6.08502 34.6425 78.5205 -0.311847 -0.0811079 0.945755
-7.31226 34.4122 78.0285 -0.366816 -0.0855259 0.926353
-8.59634 34.3967 77.5194 -0.377988 -0.0798962 0.922261
-9.56471 34.6375 77.1279 -0.390255 -0.0766366 0.91751
-10.8777 35.0628 76.5328 -0.485837 -0.0689918 0.871039
-11.8725 35.4946 75.9982 -0.518429 -0.07623 0.851399
-12.6236 36.1228 75.5691 -0.53854 -0.0460961 0.841037
-13.1236 37.0374 75.2715 -0.556222 -0.014795 0.830902
-13.4101 38.1133 75.1059 -0.557218 -0.0505051 0.828828
-13.6887 39.4594 74.9908 -0.607362 -0.0247457 0.791586
-13.8616 40.5984 74.8981 -0.606121 -0.032204 0.794708
-13.8709 41.9793 74.9704 -0.601236 -0.0541153 0.797237
-13.6208 43.522 75.1862 -0.624587 0.0352098 0.780158
-13.1467 44.8137 75.5605 -0.653408 -0.023751 0.756586
-12.7809 45.7247 75.9131 -0.648918 -0.0325798 0.760152
-12.0099 47.1057 76.5669 -0.585463 -0.0210886 0.808518
-11.4136 47.8832 76.9714 -0.544583 -0.0182161 0.838509
-10.2077 48.8903 77.7289 -0.486225 -0.0214189 0.873568
-9.44129 49.5328 78.1673 -0.483565 -0.0191489 0.875099
-8.67195 50.1106 78.5658 -0.439502 -0.0210423 0.897995
-7.79595 50.5735 79.0005 -0.435286 -0.0250537 0.899938
-6.96024 51.0208 79.3469 -0.360022 -0.0397692 0.932095
-5.81319 51.6504 79.7819 -0.282308 -0.0266875 0.958589
-4.80683 52.0569 80.061 -0.249992 0.00608276 0.968076
-3.47985 52.1929 80.3346 -0.172106 0.0191618 0.984892
-2.46955 52.3189 80.469 -0.109596 -0.0170332 0.993707
-1.26644 52.3048 80.583 -0.0685668 -0.0284932 0.996765
0.386871 52.3005 80.6117 0.00332249 -0.021635 0.99976
1.60183 52.3711 80.5629 0.122454 0.00255359 0.992393
2.70602 52.3361 80.4245 0.115182 -0.00909098 0.993288
3.68995 52.2844 80.2588 0.189799 -0.00584714 0.981713
5.15466 52.1835 79.9049 0.277987 -0.0199733 0.9603
6.17893 51.8701 79.5756 0.341136 0.0155566 0.939724
7.26562 50.826 79.1342 0.371714 -0.0138135 0.928245
8.18826 50.2467 78.7544 0.373493 -0.0155404 0.927502
9.17413 49.6165 78.2192 0.512897 -0.0164724 0.858264
9.91525 48.8726 77.7502 0.512317 -0.0228568 0.858438
10.9207 48.0473 77.1306 0.521916 -0.00957484 0.852941
11.7198 47.6834 76.6109 0.544346 -0.0194921 0.838631
12.7555 47.1109 75.905 0.567216 -0.00537847 0.823441
13.6145 46.4957 75.2997 0.585699 -0.0306328 0.809526
14.5063 45.6736 74.5753 0.610265 -0.0230297 0.791676
15.2915 44.7302 73.8968 0.658318 -0.0103154 0.752648
15.8506 43.7002 73.3852 0.655415 -0.0245357 0.754859
16.3015 42.7161 72.9604 0.653014 -0.0265139 0.756882
16.6533 41.7803 72.6166 0.65881 -0.0253647 0.751868
16.9511 40.8623 72.2947 0.69251 -0.0361892 0.720495
17.0213 39.1499 72.1717 0.670434 0.00256949 0.741469
17.0083 38.1169 72.2093 0.708502 0.0291187 0.70506
16.8295 37.0964 72.4337 0.703484 0.0503682 0.708365
16.3053 35.4311 73.0963 0.631247 0.0432989 0.772524
15.6778 34.669 73.5787 0.58679 0.0180649 0.80952
14.5266 33.779 74.3959 0.565919 -0.0053102 0.824444
13.2861 33.2701 75.1775 0.500481 -0.041555 0.864736
12.0842 33.4406 75.862 0.479639 -0.0507958 0.875994
10.9597 33.5288 76.5022 0.470588 -0.072972 0.878879
10.0634 33.9263 76.9817 0.440168 -0.0754209 0.894736
9.14893 34.5282 77.4663 0.416975 -0.0685553 0.90622
8.43083 35.1663 77.8345 0.390926 -0.0657008 0.917945
7.17659 36.2304 78.4321 0.356884 -0.0847279 0.929972
6.35831 36.7954 78.7502 0.307025 -0.06609 0.949296
5.41208 37.0073 79.0612 0.293716 -0.0774298 0.952745
4.35768 36.834 79.3454 0.249629 -0.0981912 0.962819
3.28243 36.5746 79.559 0.157541 -0.121284 0.977499
2.30697 36.3288 79.6183 0.0861097 -0.108584 0.99035
0.687247 36.1845 79.6934 0.0251867 -0.0988265 0.994786
-0.738404 36.2634 79.7097 -0.0551881 -0.0998459 0.993338
-1.8119 36.0808 79.6081 -0.0877934 -0.104384 0.990604
-3.19433 35.7078 79.3944 -0.177519 -0.112496 0.977409
-3.23988 43.2537 79.9648 -0.150054 -0.0621286 0.986562
-2.68339 44.2935 80.1206 -0.136225 -0.0776554 0.987597
-3.8762 43.9985 79.9116 -0.166587 -0.0880253 0.98209
-4.24782 43.2444 79.7938 -0.167462 -0.0549888 0.984344
-3.87786 43.3139 79.8607 -0.166701 -0.0542975 0.984511
-2.2942 44.4945 80.1881 -0.129252 -0.0808548 0.98831
-1.23877 43.9639 80.2819 -0.109238 -0.0726105 0.991124
-0.240384 43.8376 80.34 -0.0286753 -0.103369 0.994224
-0.0322594 44.5945 80.4262 -0.0540628 -0.0836615 0.99438
-1.21462 44.7282 80.3326 -0.0901907 -0.0630118 0.993929
-1.59966 44.7167 80.2968 -0.109748 -0.0715029 0.991153
0.78589 43.8997 80.361 0.0770082 -0.0701171 0.994562
2.07547 44.2759 80.2877 0.0781497 -0.071739 0.994355
2.42982 44.558 80.262 0.186849 -0.0374368 0.981675
1.26934 44.8727 80.3907 0.0793036 -0.0609823 0.994983
0.943097 44.7916 80.4117 0.0779726 -0.0655674 0.994786
8.39186 42.5987 78.3348 0.377336 -0.0347058 0.925426
8.56642 42.5138 78.2605 0.410835 -0.0472023 0.909649
9.5143 41.5493 77.7315 0.438588 -0.0422805 0.897593
10.5362 40.7343 77.1524 0.481029 -0.0280957 0.876226
11.2783 40.204 76.734 0.479001 -0.0216431 0.877547
10.5412 40.7375 77.1497 0.482571 -0.0292794 0.875328
9.99943 41.5116 77.4801 0.481841 -0.0327252 0.875641
9.72388 41.6672 77.6373 0.459334 -0.0430293 0.886724
-13.3486 34.0924 74.954 -0.539302 -0.0546402 0.840284
-13.1325 33.119 75.0339 -0.531329 -0.0483968 0.845782
-12.8963 32.0727 75.1173 -0.51171 -0.0511229 0.857634
-12.906 31.0761 75.0252 -0.496621 -0.0736897 0.864833
-12.7836 29.9921 75.0109 -0.50813 -0.0500098 0.859438
-12.8127 28.3143 74.9359 -0.493014 -0.0430495 0.868897
-12.9184 27.2437 74.7952 -0.509168 -0.070682 0.85776
-13.3517 26.27 74.4815 -0.506984 -0.0490445 0.860508
-13.8863 25.1352 74.1218 -0.511372 -0.0330977 0.858714
-14.3343 24.2814 73.8148 -0.501399 -0.0527113 0.863609
-14.7395 23.4117 73.5245 -0.506097 -0.057597 0.860538
-15.9156 22.5858 72.7691 -0.520506 -0.0546991 0.851993
-16.5948 21.8609 72.3115 -0.533506 -0.0284954 0.845316
-17.4814 21.6535 71.7454 -0.540628 -0.0362326 0.840394
-18.3095 21.4934 71.1912 -0.570265 -0.0316912 0.820832
-19.1742 21.5385 70.5865 -0.573178 -0.0313692 0.818815
-20.2283 21.8173 69.841 -0.589873 -0.0237668 0.807105
-21.5097 22.4355 68.9129 -0.599487 -0.0271864 0.799798
-22.3219 23.217 68.3473 -0.614849 -0.0363252 0.787504
-23.0628 24.2082 67.7917 -0.631697 -0.0385006 0.774258
-23.3577 25.1796 67.5917 -0.620348 -0.0200857 0.784066
-23.6495 26.2339 67.3842 -0.637485 -0.0185884 0.769971
-23.9348 27.2336 67.1742 -0.635232 -0.0241369 0.771712
-23.9959 28.2391 67.1348 -0.628625 -0.00745304 0.777673
-23.9258 29.2931 67.2129 -0.608603 -0.0279948 0.792907
-23.6419 30.2321 67.4517 -0.618288 -0.0167454 0.785773
-23.1636 31.7629 67.8222 -0.59086 0.00269998 0.806508
-22.8775 32.8159 68.0441 -0.580211 -0.0100556 0.814392
-22.1387 33.3173 68.5728 -0.583558 -0.00474924 0.812058
-21.594 34.0531 68.9687 -0.567358 0.0156857 0.822812
-20.7961 34.5873 69.4757 -0.552832 0.0524945 0.83157
-19.8543 35.2894 70.0412 -0.540785 0.0652121 0.83859
-18.6454 35.6628 70.819 -0.575081 0.106483 0.810688
-17.8082 35.9962 71.441 -0.623205 0.108802 0.774453
-16.8777 36.1108 72.194 -0.656303 0.100363 0.747784
-16.0556 36.0342 72.9219 -0.656329 0.0173113 0.754265
-14.9301 35.9666 73.9172 -0.632955 -0.00263307 0.772628
-13.8021 35.1888 74.7363 -0.598803 -0.0287118 0.800378
-13.3906 34.2049 74.9355 -0.536367 -0.0626708 0.841647
-14.0477 34.0914 74.5052 -0.539302 -0.0546402 0.840284
-13.7843 33.0978 74.6212 -0.538578 -0.0470203 0.841259
-13.6428 32.0863 74.6504 -0.535524 -0.0462257 0.843239
-13.5657 31.0464 74.6438 -0.496384 -0.0747587 0.864878
-13.5199 29.4398 74.5707 -0.497226 -0.0267973 0.867207
-13.5934 28.2523 74.4729 -0.515005 -0.0565607 0.855245
-13.7597 27.2823 74.2954 -0.514551 -0.0600929 0.855308
-14.2678 25.9251 73.9239 -0.509636 -0.0313159 0.85982
-14.8583 24.767 73.529 -0.505472 -0.0359647 0.86209
-15.5012 23.8756 73.106 -0.520824 -0.055943 0.851712
-16.2736 23.2037 72.5806 -0.531735 -0.0499297 0.845438
-17.1371 22.5776 72.0016 -0.531856 -0.0488258 0.845426
-18.0592 22.3262 71.393 -0.565602 -0.0252597 0.82428
-19.2424 22.3981 70.5762 -0.571512 -0.0350666 0.819844
-20.2877 22.6703 69.8292 -0.5938 -0.0301635 0.804047
-21.5326 23.3685 68.9414 -0.590538 -0.0327455 0.806346
-22.3526 24.4095 68.3687 -0.61167 -0.0232142 0.790636
-22.8396 25.5876 68.0121 -0.621256 -0.0179135 0.783403
-23.1411 26.6276 67.7964 -0.621327 -0.0150427 0.783405
-23.3119 27.7658 67.678 -0.623239 -0.00716366 0.781999
-23.3024 28.8051 67.6953 -0.622428 -0.0086278 0.78263
-23.0484 30.1015 67.9157 -0.61877 -0.0163551 0.785401
-22.7439 31.0302 68.1539 -0.600092 0.018508 0.799716
-22.1713 32.2562 68.5559 -0.602246 0.0280242 0.797758
-21.5555 32.9666 68.9897 -0.584177 -0.00410836 0.811615
-20.6112 33.8555 69.6357 -0.57651 0.0423005 0.815594
-19.8635 34.3706 70.1557 -0.594674 0.0832532 0.799062
-18.9696 34.726 70.7188 -0.593993 0.120072 0.795458
-18.0575 35.087 71.3547 -0.625132 0.0951801 0.774693
-17.2113 35.2564 72.0202 -0.619026 0.0862092 0.780467
-16.1053 35.2811 72.9069 -0.637147 0.0376355 0.769822
-15.3322 35.2081 73.5852 -0.632955 -0.00263307 0.772628
-14.191 34.3127 74.4112 -0.601123 -0.0300975 0.798589
-14.0736 34.1605 74.4939 -0.569811 -0.0469554 0.81942
-14.6537 33.4784 74.0516 -0.600037 -0.00483375 0.799957
-15.1903 34.2039 73.6534 -0.60167 -0.0175439 0.798434
-16.0611 34.4899 72.9806 -0.621693 0.0574172 0.78065
-17.0824 34.5134 72.1942 -0.605333 0.0815706 0.791772
-17.8701 34.3721 71.5937 -0.610477 0.108154 0.784286
-19.2235 33.8612 70.6586 -0.575036 0.116761 0.80938
-19.9768 33.4594 70.1319 -0.593483 0.0361222 0.804035
-20.8419 32.719 69.5264 -0.595321 0.0363136 0.802664
-21.6161 31.8377 68.9891 -0.597039 0.0350264 0.801446
-22.3709 30.2497 68.4528 -0.597473 -0.000411586 0.801564
-22.6845 28.9196 68.1887 -0.623219 -0.00916263 0.781994
-22.7277 27.8043 68.1427 -0.62031 -0.00981339 0.784288
-22.3082 25.9572 68.4419 -0.604517 -0.0132733 0.796269
-21.6076 24.5185 68.9294 -0.595837 -0.0181694 0.802899
-20.9052 23.794 69.418 -0.591699 -0.0318433 0.805527
-19.5938 23.2935 70.3653 -0.593587 -0.031293 0.804161
-18.7544 23.1302 70.9392 -0.563363 -0.0232433 0.825882
-17.5707 23.2558 71.7546 -0.568226 -0.0227087 0.822559
-16.3396 24.0754 72.5895 -0.537394 -0.0455655 0.842098
-15.6391 24.7892 73.0639 -0.525098 -0.0322453 0.85036
-15.0689 25.8001 73.4437 -0.513814 -0.0306313 0.857343
-14.646 26.7633 73.7394 -0.502953 -0.048686 0.86294
-14.2449 28.227 74.0778 -0.519016 -0.055478 0.852876
-14.1753 30.0341 74.2095 -0.526942 -0.036055 0.849079
-14.2213 31.1462 74.2374 -0.535392 -0.0431309 0.843499
-14.4666 33.056 74.1818 -0.537701 -0.0489962 0.84171
-14.4869 33.1626 74.1749 -0.569528 -0.0248031 0.820512
-15.2953 33.1915 73.5693 -0.599577 -0.00440023 0.800305
-16.1228 33.6885 72.9628 -0.592666 0.00747814 0.805387
-16.9257 33.7491 72.3634 -0.597848 0.00931986 0.801555
-17.771 33.6149 71.755 -0.579843 0.0475523 0.813079
-18.6497 33.3272 71.1241 -0.591349 0.0559275 0.804472
-19.4787 32.9309 70.5233 -0.593483 0.0361222 0.804035
-20.6374 31.9666 69.7111 -0.594253 0.0349186 0.803519
-21.3508 30.971 69.2132 -0.596788 -0.00055306 0.802081
-21.8497 29.8063 68.821 -0.585226 -0.0145642 0.810713
-22.1274 28.2425 68.6046 -0.583674 -0.00646632 0.811956
-22.027 27.2123 68.6666 -0.589174 -0.0116619 0.807922
-21.6016 25.945 68.9597 -0.590747 -0.00964886 0.806799
-20.8735 24.74 69.4777 -0.593471 -0.00967555 0.804787
-19.889 24.1993 70.1807 -0.58969 -0.0264808 0.807195
-19.0454 24.0014 70.7686 -0.561222 -0.0295352 0.827138
-18.0121 23.9491 71.4693 -0.568078 -0.0366166 0.822096
-16.9382 24.5609 72.2329 -0.546534 -0.0397378 0.836414
-16.0463 25.4299 72.8384 -0.52436 -0.0388173 0.850558
-15.5842 26.2652 73.1492 -0.520038 -0.0393411 0.853192
-15.0875 27.6305 73.5307 -0.51343 -0.0480238 0.856717
-14.8039 29.2135 73.7811 -0.537073 -0.0324076 0.842913
-14.8268 30.5705 73.8232 -0.536784 -0.0427529 0.842629
-14.9755 32.1141 73.8037 -0.563609 -0.0235972 0.82499
-15.0784 32.4645 73.728 -0.593632 -0.000288878 0.804693
-15.6952 32.2059 73.2811 -0.587848 -0.000963431 0.808957
-16.4127 32.8908 72.757 -0.59261 0.00783955 0.805414
-17.9429 32.7614 71.679 -0.570805 0.0290234 0.820472
-18.7332 32.5145 71.1072 -0.600789 0.0383266 0.798474
-19.5811 32.0007 70.4891 -0.593419 0.0358887 0.804093
-20.2493 31.3769 70.0169 -0.586457 0.00680441 0.809952
-20.9967 30.2439 69.4524 -0.595289 -0.0203414 0.803209
-21.4525 28.7445 69.0938 -0.58371 -0.00644463 0.811931
-21.4604 27.6195 69.0827 -0.585037 -0.00370003 0.810998
-20.8853 25.9865 69.4841 -0.593715 -0.00981074 0.804604
-20.2057 25.2021 69.9799 -0.596849 -0.00996964 0.802292
-19.4036 24.8697 70.5569 -0.575301 -0.0279042 0.817281
-17.7841 24.9327 71.682 -0.570482 -0.0449438 0.820069
-17.0102 25.4478 72.2247 -0.551692 -0.0370129 0.83321
-16.1911 26.5505 72.7925 -0.520228 -0.0404083 0.853036
-15.7917 27.5326 73.0927 -0.529073 -0.0377652 0.847647
-15.4581 29.1289 73.361 -0.536599 -0.0320581 0.843228
-15.4381 30.2538 73.4149 -0.540368 -0.0359977 0.840639
-15.6007 31.6639 73.3461 -0.587545 -0.00533881 0.809174
-16.207 31.4536 72.905 -0.587153 -0.00500244 0.80946
-16.0755 30.3228 72.9985 -0.570221 0.00360032 0.821482
-16.1826 28.666 72.8827 -0.537784 -0.0311881 0.842505
-16.4548 27.5941 72.6743 -0.535321 -0.0284774 0.844168
-17.2653 26.2227 72.0865 -0.559266 -0.0287367 0.82849
-18.4978 25.5607 71.2165 -0.571257 -0.0413918 0.819711
-19.3346 25.6513 70.6321 -0.579323 -0.0238852 0.814715
-20.168 26.1715 70.0204 -0.596439 -0.0102557 0.802592
-20.6765 27.0803 69.6589 -0.607345 -0.0132982 0.794266
-20.869 28.0708 69.5164 -0.611891 -0.00497715 0.790926
-20.6703 29.3261 69.6759 -0.606435 -0.0108899 0.794992
-20.1487 30.4588 70.0975 -0.594247 -0.00624145 0.804087
-19.5274 31.1362 70.5415 -0.58713 0.00728069 0.809459
-18.7353 31.701 71.1182 -0.595102 -0.00331382 0.803642
-17.6049 32.0749 71.9341 -0.571447 0.00949556 0.820495
-16.7698 32.0875 72.5054 -0.567197 0.00297766 0.823565
-16.482 31.7536 72.7074 -0.578635 0.000289241 0.815502
-17.0508 30.9973 72.3176 -0.57004 0.00513463 0.821601
-16.7216 30.1211 72.5505 -0.570347 0.00209946 0.821401
-16.7755 28.9852 72.5154 -0.554448 -0.0150457 0.831702
-17.0782 27.7824 72.2721 -0.56226 -0.0324158 0.826325
-18.0561 26.5515 71.5624 -0.568514 -0.027086 0.822189
-19.4718 26.5892 70.5555 -0.592876 -0.0209158 0.804942
-20.1472 27.5215 70.0709 -0.606714 -0.0130101 0.794756
-20.224 28.5913 70.0181 -0.610003 -0.00220422 0.792396
-19.6979 29.9612 70.4251 -0.605691 -0.0101746 0.795563
-18.7782 30.8404 71.0889 -0.588325 0.00745821 0.80859
-17.9566 31.2062 71.6928 -0.580299 -0.00308717 0.814191
-17.2883 31.2813 72.1511 -0.567747 0.00227874 0.82319
-17.95 30.4207 71.6958 -0.581173 0.00357827 0.81371
-17.3361 29.6468 72.125 -0.570332 0.00210502 0.821411
-17.6396 28.1172 71.8983 -0.575778 -0.0171272 0.817426
-18.1923 27.3667 71.4929 -0.579432 -0.0183235 0.814802
-19.1346 27.2918 70.8144 -0.583749 -0.0188888 0.811714
-19.5212 28.9904 70.5563 -0.593151 -0.00125631 0.80509
-18.9295 29.8718 70.9881 -0.588226 0.00821517 0.808655
-18.6376 30.0822 71.1984 -0.588412 0.00795676 0.808522
-18.3814 29.3814 71.3901 -0.583574 -0.00181169 0.812037
-18.4192 28.2612 71.3509 -0.581013 -0.0164535 0.81372
-19.011 28.7919 70.9319 -0.593151 -0.00125631 0.80509
-18.8738 29.0341 71.0333 -0.590297 0.000243032 0.807178
