-4.48357 -43.2109 83.3241 -0.396892 0.0756578 0.914742
-3.38274 -43.4708 83.7094 -0.240514 0.113861 0.963314
-2.29887 -43.4925 83.9464 -0.209052 0.0933572 0.973437
-1.50529 -42.849 83.9956 -0.146921 0.112363 0.982745
-0.392689 -43.2589 84.1994 -0.0380332 0.120478 0.987573
0.649577 -43.4253 84.1695 0.0525551 0.14628 0.987846
1.47118 -42.7184 84.042 0.0663157 0.124323 0.989775
2.55521 -43.2483 84.0012 0.113298 0.0992382 0.988593
3.87077 -43.4473 83.8128 0.259159 0.127874 0.957332
2.82943 -42.5891 83.902 0.104403 0.116182 0.987577
1.52924 -42.3955 83.9947 0.0873467 0.129111 0.987776
0.489351 -42.8444 84.1015 0.0446358 0.119447 0.991837
-0.583086 -42.6528 84.1124 -0.0692409 0.12941 0.985679
-1.67795 -42.6799 83.9499 -0.152293 0.105278 0.982672
-3.07855 -43.0837 83.739 -0.237945 0.114727 0.963775
-4.12437 -43.0737 83.4456 -0.269869 0.139165 0.952778
-4.28591 -43.0634 83.3977 -0.335015 0.108425 0.93314
-4.63481 -42.263 83.1792 -0.319849 0.114233 0.939062
-5.56099 -42.3733 82.7264 -0.448086 0.107485 0.887506
-5.33753 -43.5561 82.9825 -0.422257 0.0920001 0.901178
-3.97455 -44.109 83.6188 -0.39645 0.0687562 0.915453
-2.97658 -44.158 83.8645 -0.212139 0.0936041 0.972744
-1.59697 -44.0138 84.1141 -0.139982 0.102616 0.984747
-0.302994 -44.0058 84.2821 -0.127049 0.0950822 0.987329
0.813275 -44.023 84.2493 0.0525551 0.14628 0.987846
2.57944 -43.9935 84.0757 0.119288 0.116855 0.985959
3.64541 -44.0806 83.959 0.186736 0.113715 0.972854
4.91044 -43.9937 83.6116 0.254999 0.14252 0.95638
5.89564 -43.9012 83.2519 0.349762 0.146632 0.925292
5.87963 -43.2968 83.186 0.318041 0.0908642 0.943712
5.04789 -42.6549 83.4083 0.281559 0.0802962 0.955242
4.17153 -42.1945 83.5896 0.240962 0.0779652 0.967398
2.31104 -41.7803 83.8454 0.0849183 0.11435 0.989801
1.26254 -41.7358 83.9317 0.0661512 0.12546 0.989661
0.208867 -41.9114 83.9879 0.00942734 0.15568 0.987762
-0.793622 -41.972 84.0069 0.00939865 0.155793 0.987745
-2.38786 -42.2519 83.7965 -0.170455 0.111633 0.978763
-3.61133 -42.3268 83.482 -0.272786 0.0905152 0.957807
-3.61472 -42.3268 83.481 -0.274944 0.0888905 0.957338
-3.92955 -41.62 83.325 -0.274944 0.0888905 0.957338
-2.92637 -41.5963 83.6081 -0.229923 0.108735 0.965944
-1.56503 -41.3901 83.8349 -0.157698 0.118211 0.980183
-0.0479916 -41.21 83.8798 0.00920032 0.15583 0.987741
1.00153 -41.0684 83.8491 0.016379 0.153709 0.987937
2.28111 -41.0784 83.7653 0.0823948 0.116572 0.989758
3.43323 -41.2847 83.6635 0.211035 0.11873 0.97024
4.99429 -41.8318 83.3545 0.282101 0.0814849 0.955021
6.26473 -42.4387 82.9728 0.321847 0.087032 0.942768
7.13929 -42.9601 82.6501 0.44777 0.0908161 0.889525
6.8097 -44.3622 82.9431 0.482253 0.0483313 0.874458
5.88946 -44.6429 83.3717 0.349762 0.146632 0.925292
4.64494 -44.7257 83.7843 0.249202 0.110646 0.961899
3.15873 -44.7034 84.0892 0.140013 0.0939435 0.98522
1.95444 -44.6513 84.2293 0.102573 0.111787 0.988265
0.29027 -44.6917 84.3762 0.0686298 0.127461 0.989151
-0.942717 -44.7223 84.2688 -0.129139 0.0941459 0.987144
-2.37958 -44.8038 84.0584 -0.19449 0.0906962 0.976557
-3.48663 -44.8279 83.8261 -0.209259 0.10477 0.972224
-4.94066 -44.6211 83.2352 -0.396385 0.0620571 0.915985
-5.74395 -44.1315 82.8485 -0.438307 0.099727 0.89315
-6.29183 -43.2368 82.4645 -0.438551 0.11398 0.891448
-6.63138 -42.3311 82.1796 -0.462034 0.101208 0.880719
-5.9861 -41.5576 82.4345 -0.446821 0.0838437 0.890685
-4.99545 -41.5758 82.9324 -0.405184 0.11353 0.905586
-4.24016 -41.6006 83.2331 -0.319849 0.114233 0.939062
-4.29206 -40.9191 83.107 -0.361821 0.144463 0.920987
-5.37941 -40.8696 82.6715 -0.403997 0.115446 0.905905
-6.35588 -40.8191 82.177 -0.449167 0.0860484 0.889291
-7.24582 -40.8086 81.7241 -0.457535 0.081098 0.88545
-7.34267 -42.1144 81.7869 -0.463953 0.0765266 0.882548
-7.02952 -43.186 82.0936 -0.459938 0.126009 0.878965
-6.61912 -44.122 82.4178 -0.440054 0.101149 0.892149
-5.744 -45.0321 82.9123 -0.400311 0.0614327 0.914315
-4.70466 -45.3941 83.3881 -0.387916 0.0719069 0.918756
-3.54787 -45.509 83.8851 -0.296676 0.0849131 0.946351
-1.87802 -45.4753 84.2061 -0.182486 0.0785322 0.980067
-0.746543 -45.4236 84.3613 -0.129139 0.0941459 0.987144
0.923664 -45.3676 84.4045 0.096002 0.141978 0.985202
2.14769 -45.3453 84.2877 0.102573 0.111787 0.988265
3.72953 -45.3937 84.0458 0.160001 0.0687556 0.984719
4.7801 -45.3992 83.8198 0.270112 0.069462 0.959217
6.03572 -45.3619 83.3871 0.359713 0.0762911 0.92867
7.36329 -44.8687 82.6662 0.492933 0.0588301 0.868072
8.22157 -43.7726 82.1595 0.496423 0.0276263 0.867368
7.82001 -42.5664 82.2829 0.432432 0.0630619 0.899459
6.98261 -42.0264 82.6475 0.412972 0.101113 0.904097
6.0024 -41.5499 82.9703 0.356928 0.140273 0.92354
4.9944 -41.093 83.2876 0.357107 0.135627 0.924145
3.93811 -40.7076 83.4844 0.210806 0.116538 0.970556
2.72969 -40.4349 83.6496 0.077078 0.134191 0.987825
1.40903 -40.3632 83.7255 0.0435884 0.154117 0.986882
0.37701 -40.4068 83.7555 0.0119023 0.154001 0.987977
-0.742275 -40.5745 83.79 -0.00756849 0.161938 0.986553
-1.93109 -40.7565 83.6849 -0.17164 0.131212 0.976382
-3.18485 -40.9178 83.4706 -0.229276 0.108331 0.96615
-3.84492 -40.9276 83.2838 -0.316957 0.117406 0.939511
-3.50524 -40.2454 83.3101 -0.361744 0.148797 0.920317
-2.3436 -40.1255 83.5216 -0.180533 0.139678 0.9736
-0.49239 -39.8369 83.6667 -0.0402158 0.1533 0.987154
0.501313 -39.7111 83.6409 0.0258729 0.138589 0.989712
1.53712 -39.6575 83.6101 0.0421879 0.153532 0.987044
3.25616 -39.7931 83.5124 0.14847 0.153082 0.974201
4.70981 -40.2551 83.2428 0.227152 0.137902 0.964039
5.72354 -40.6901 82.9468 0.357107 0.135627 0.924145
6.60762 -41.0937 82.6671 0.374529 0.140057 0.91637
7.68045 -41.6309 82.2833 0.416047 0.102023 0.902692
8.47166 -42.1928 81.8894 0.569519 0.0602584 0.819766
9.0402 -42.9801 81.5574 0.551176 0.0999433 0.828381
9.00828 -44.0756 81.6955 0.515758 0.0263775 0.856328
8.14879 -45.1193 82.2518 0.497283 0.0368434 0.866438
7.16433 -45.845 82.8455 0.485285 0.0814515 0.870263
6.26518 -46.0717 83.3506 0.425722 0.0779083 0.899956
5.25175 -46.1182 83.7011 0.315213 0.094104 0.944331
4.29409 -46.0913 84.0031 0.178422 0.073443 0.981002
3.05681 -46.0527 84.206 0.164878 0.0873887 0.982435
1.59791 -46.0429 84.4349 0.120743 0.111429 0.985667
0.40877 -46.0743 84.5545 -0.0111835 0.10645 0.988263
-1.34519 -46.1487 84.3495 -0.126273 0.0863741 0.988194
-2.48313 -46.19 84.1486 -0.186173 0.0579287 0.980808
-3.81408 -46.185 83.8325 -0.356564 0.0608838 0.93143
-4.9471 -46.0856 83.3519 -0.382122 0.0881498 0.919891
-6.10001 -45.7565 82.8053 -0.404171 0.0784875 0.911148
-6.90696 -44.9696 82.3581 -0.438192 0.0847667 0.894876
-7.3727 -44.0908 82.0426 -0.440054 0.101149 0.892149
-7.71575 -43.1685 81.7322 -0.45961 0.127202 0.878964
-8.0343 -42.221 81.4306 -0.462604 0.10028 0.880505
-8.38122 -41.2405 81.1256 -0.509602 0.103247 0.854193
-8.58427 -40.2743 80.8877 -0.509797 0.10453 0.853919
-7.56536 -39.9849 81.458 -0.499795 0.108191 0.859311
-6.69116 -40.0834 81.9356 -0.451066 0.0869473 0.888245
-5.76619 -40.1512 82.4086 -0.397918 0.115775 0.908049
-4.71179 -40.2156 82.8301 -0.362489 0.153238 0.919304
-4.55962 -40.2224 82.8913 -0.362241 0.153069 0.91943
-4.31438 -39.5239 82.8716 -0.362241 0.153069 0.91943
-6.04799 -39.4349 82.1889 -0.347673 0.147217 0.925986
-6.98224 -39.3396 81.7072 -0.484912 0.113774 0.867083
-8.4283 -39.1754 80.8435 -0.509025 0.110765 0.853595
-9.32734 -39.3612 80.3258 -0.53452 0.0979281 0.839047
-9.28148 -40.6141 80.4996 -0.541244 0.0994417 0.834834
-8.92164 -41.5732 80.8309 -0.531032 0.0914937 0.842398
-8.56224 -42.5954 81.1549 -0.540002 0.0700754 0.838719
-8.19509 -43.6766 81.4893 -0.543875 0.0738849 0.835907
-7.8127 -44.6907 81.8306 -0.521574 0.0625975 0.850378
-7.35414 -45.5649 82.1394 -0.499286 0.0405515 0.865487
-6.20669 -46.5616 82.8256 -0.468126 0.0372645 0.882876
-5.20294 -46.7801 83.3178 -0.394934 0.098768 0.91326
-4.2532 -46.8615 83.698 -0.334993 0.0260521 0.94186
-3.30917 -46.8832 84.0326 -0.255486 0.0365885 0.963239
-2.3119 -46.8753 84.2215 -0.186173 0.0579287 0.980808
-0.763938 -46.8196 84.4718 -0.122165 0.070963 0.989969
0.349391 -46.7755 84.6039 -0.118246 0.0750918 0.990129
1.54262 -46.739 84.5012 0.141571 0.0813846 0.986569
3.07943 -46.7433 84.2636 0.164707 0.0866946 0.982525
4.61792 -46.7944 83.9822 0.250478 0.0820259 0.962542
5.62125 -46.8252 83.6482 0.315213 0.094104 0.944331
6.64144 -46.7724 83.2333 0.425722 0.0779083 0.899956
7.48737 -46.5146 82.747 0.476822 0.101181 0.873147
8.22416 -45.9945 82.2717 0.497606 0.0918327 0.862528
9.03377 -45.2392 81.7352 0.494605 0.0778366 0.865625
9.68696 -44.3603 81.2951 0.532815 0.0640065 0.842696
9.89597 -43.3969 81.0335 0.567985 0.10137 0.816772
9.42789 -42.304 81.2336 0.568104 0.0583487 0.820882
8.36766 -41.2461 81.8931 0.557133 0.0799072 0.82615
7.44291 -40.7507 82.2553 0.382421 0.108689 0.917573
6.46345 -40.294 82.601 0.358596 0.13657 0.923438
5.45963 -39.8414 82.9283 0.360702 0.133177 0.923124
4.44268 -39.4282 83.1843 0.223787 0.143482 0.964015
3.36357 -39.1009 83.3826 0.217132 0.15272 0.96409
1.96185 -38.9602 83.4703 0.0688999 0.171993 0.982664
0.798424 -38.983 83.5445 0.0400945 0.11566 0.992473
-0.789095 -39.1754 83.5588 -0.0487486 0.124761 0.990988
-2.126 -39.3975 83.4565 -0.179856 0.143821 0.97312
-3.40048 -39.5405 83.2378 -0.275229 0.145993 0.945454
-4.1153 -39.5282 82.9507 -0.364191 0.150544 0.91907
-4.20573 -38.8309 82.8027 -0.367204 0.147298 0.918403
-2.97751 -38.8013 83.2078 -0.185413 0.15029 0.971084
-1.60367 -38.6305 83.4087 -0.120598 0.215994 0.968736
-0.534887 -38.4494 83.4804 -0.0755746 0.169917 0.981087
0.839195 -38.2842 83.4384 0.0776036 0.179077 0.980751
2.48739 -38.2634 83.3089 0.0659255 0.178042 0.981812
4.00327 -38.5496 83.15 0.217755 0.167745 0.961429
4.96042 -38.8864 82.9754 0.270304 0.172645 0.946582
6.19365 -39.4351 82.602 0.342078 0.100988 0.934229
7.18416 -39.8845 82.2593 0.377668 0.104061 0.920062
8.16389 -40.3451 81.9068 0.382421 0.108689 0.917573
8.94972 -40.8368 81.4587 0.547674 0.104852 0.830096
9.682 -41.4907 81.0024 0.564844 0.0568634 0.82323
10.4476 -42.8304 80.5878 0.556206 0.0732939 0.827805
10.5408 -43.9567 80.6548 0.56983 0.101789 0.815431
9.89318 -45.3307 81.2524 0.54789 0.0779617 0.830369
9.26374 -46.0224 81.6707 0.507813 0.0768626 0.857885
8.43532 -46.7318 82.2283 0.498892 0.0843212 0.862536
7.27468 -47.3746 82.9513 0.477986 0.0862392 0.87412
6.32898 -47.5164 83.403 0.390076 0.0446932 0.91968
5.38175 -47.5186 83.806 0.356461 0.0796299 0.929676
4.33214 -47.4748 84.0808 0.199397 0.0562886 0.97827
3.11946 -47.43 84.317 0.178651 0.073418 0.980986
2.02656 -47.4277 84.4868 0.13352 0.0527726 0.989141
0.746652 -47.4565 84.6413 0.0330075 0.008271 0.995601
-1.13093 -47.5258 84.4773 -0.151114 0.062347 0.986029
-2.8495 -47.5692 84.1605 -0.184475 0.0560742 0.981233
-4.08176 -47.5614 83.7782 -0.329439 0.0207176 0.94392
-5.21317 -47.5048 83.3798 -0.361975 0.0500928 0.929972
-6.36066 -47.3198 82.7759 -0.466454 0.0362665 0.883799
-7.39633 -46.6285 82.1786 -0.498754 0.0552767 0.864979
-7.99542 -45.7679 81.7784 -0.499533 0.0483308 0.86492
-8.41939 -44.8458 81.4477 -0.547412 0.074956 0.8335
-8.77154 -43.889 81.1297 -0.548657 0.07309 0.832843
-9.07366 -42.9554 80.8485 -0.555369 0.06431 0.829055
-9.43661 -41.9705 80.5401 -0.554883 0.0673184 0.829101
-9.85616 -40.9521 80.1579 -0.557045 0.0945671 0.825018
-10.1657 -39.9956 79.8292 -0.554856 0.0954612 0.826411
-10.2489 -39.0031 79.6667 -0.578793 0.102456 0.809012
-8.84258 -38.386 80.4932 -0.513842 0.109398 0.850881
-7.97011 -38.4725 81.0234 -0.504896 0.142768 0.851211
-6.49684 -38.693 81.8863 -0.463885 0.108506 0.879042
-5.51391 -38.7741 82.2845 -0.348915 0.1475 0.925474
-4.78132 -38.7998 82.5668 -0.365393 0.150259 0.918637
-4.54832 -38.1214 82.5649 -0.357143 0.119511 0.926372
-3.37306 -38.1275 83.0234 -0.277643 0.150358 0.944225
-1.8328 -37.9745 83.2308 -0.135869 0.213506 0.967444
-0.788673 -37.8096 83.3116 -0.101873 0.216039 0.971055
0.681571 -37.6043 83.3143 0.0375763 0.243284 0.969221
2.22418 -37.5463 83.1961 0.0753752 0.198037 0.977051
3.3097 -37.6416 83.1203 0.140552 0.217286 0.964431
4.92727 -38.1427 82.8482 0.237659 0.174841 0.955483
5.91876 -38.5707 82.6075 0.326399 0.140235 0.933996
6.90787 -39.0194 82.2776 0.381551 0.105061 0.918356
7.90464 -39.4699 81.9101 0.385518 0.106979 0.91647
8.83298 -39.9659 81.4257 0.547551 0.104796 0.830184
9.66076 -40.5331 80.951 0.557674 0.0807546 0.825702
10.4317 -41.3776 80.4838 0.564139 0.0568747 0.823715
11.079 -42.5735 80.1396 0.557854 0.0743796 0.826598
11.2511 -43.554 80.108 0.599563 0.0719896 0.795401
10.9725 -44.775 80.3938 0.590814 0.0500122 0.805256
10.4556 -45.7255 80.8649 0.600919 0.0741356 0.795845
9.25582 -46.9649 81.7764 0.50621 0.0904645 0.85762
8.2586 -47.7402 82.4305 0.509854 0.081727 0.85637
7.27043 -48.1765 83.0316 0.441136 0.0681934 0.893611
6.32939 -48.2437 83.4431 0.392559 0.0577679 0.917911
5.28717 -48.2187 83.8882 0.354529 0.033908 0.933189
4.20085 -48.1673 84.1548 0.200171 0.0814186 0.976344
3.05268 -48.1214 84.3787 0.181217 0.0685262 0.980925
1.77537 -48.1273 84.5344 0.120697 0.0242523 0.992393
0.501263 -48.157 84.6215 -0.0518728 -0.00826426 0.998619
-0.852285 -48.205 84.5527 -0.0370351 0.0314679 0.997925
-1.86947 -48.2452 84.3792 -0.183173 0.0507937 0.981766
-2.86569 -48.2597 84.1932 -0.221431 0.0330108 0.973714
-3.88963 -48.2521 83.8911 -0.321465 0.0678785 0.944465
-4.94176 -48.2307 83.5245 -0.361975 0.0500928 0.929972
-6.078 -48.1308 82.9989 -0.468524 0.0873321 0.879123
-7.39271 -47.6223 82.2464 -0.483806 0.0772426 0.871555
-8.09887 -46.9226 81.7807 -0.521835 0.0387636 0.852165
-8.7331 -45.7067 81.3061 -0.568643 0.0670206 0.819826
-9.11026 -44.7522 80.9727 -0.570336 0.0612049 0.819128
-9.43355 -43.8347 80.6736 -0.58315 0.0568982 0.810296
-9.72862 -42.8869 80.4044 -0.555369 0.06431 0.829055
-10.098 -41.9611 80.09 -0.59848 0.0440741 0.7999
-10.555 -40.8747 79.6546 -0.600146 0.0727344 0.796577
-10.8486 -39.943 79.3464 -0.603352 0.0798115 0.793456
-10.6453 -38.1424 79.2741 -0.578793 0.102456 0.809012
-9.73096 -37.6796 79.8397 -0.515956 0.167367 0.840052
-8.2615 -37.702 80.7126 -0.500631 0.153628 0.85192
-7.3607 -37.8541 81.2783 -0.494857 0.137206 0.858071
-6.05032 -38.0379 81.9839 -0.372237 0.135214 0.917738
-4.91981 -38.1033 82.4196 -0.355275 0.120797 0.926923
-5.00696 -37.4114 82.2982 -0.353545 0.116892 0.92808
-3.41578 -37.4321 82.8786 -0.230198 0.195448 0.94952
-1.97059 -37.3065 83.0626 -0.135686 0.218888 0.966264
-0.824525 -37.1327 83.1464 -0.0914423 0.235331 0.967603
0.495458 -36.9309 83.1508 0.0392185 0.246123 0.968445
1.58978 -36.8331 83.0888 0.0536958 0.224571 0.972652
2.71053 -36.8639 83.0009 0.0869618 0.21647 0.972409
4.09825 -37.1123 82.8359 0.198687 0.225017 0.953881
5.61183 -37.7071 82.548 0.303594 0.17313 0.93694
6.55149 -38.1214 82.3139 0.380754 0.207729 0.899291
7.59515 -38.6008 81.9067 0.437724 0.200124 0.876552
8.60093 -39.0669 81.4871 0.501808 0.135917 0.851485
9.5184 -39.5962 80.957 0.53073 0.0741975 0.844286
10.2827 -40.1978 80.4796 0.577158 0.0755492 0.813106
11.18 -41.3313 79.9555 0.606226 0.0765432 0.790765
11.6674 -42.378 79.647 0.640549 0.0726067 0.764477
11.8349 -44.0123 79.6596 0.639623 0.063935 0.765996
11.4533 -45.3602 80.0774 0.613195 0.0536499 0.787583
10.7607 -46.4244 80.6796 0.611168 0.0447933 0.79023
10.0488 -47.1223 81.2455 0.580749 0.0182503 0.813484
9.35117 -47.7941 81.7367 0.559028 0.022268 0.828833
8.3493 -48.584 82.4562 0.536682 0.0641744 0.840596
7.53836 -48.8895 82.9526 0.452601 0.0672196 0.887595
6.4731 -48.9481 83.426 0.397347 0.0546383 0.91602
5.53152 -48.9288 83.8154 0.314874 0.012907 0.949046
4.53517 -48.8858 84.1454 0.252396 0.0427558 0.964248
3.51091 -48.8417 84.3435 0.169712 0.0609337 0.983607
2.39936 -48.7991 84.5162 0.0915353 0.0728932 0.993124
1.08934 -48.8288 84.6337 0.102996 0.0464327 0.993169
-0.330225 -48.8755 84.6136 -0.0252824 0.072966 0.997012
-1.47553 -48.9231 84.483 -0.158724 0.0288629 0.986901
-2.57748 -48.9496 84.2819 -0.223517 0.031201 0.973212
-3.60142 -48.9427 84.0054 -0.259993 0.0105487 0.965553
-4.65211 -48.9341 83.6731 -0.359872 0.0471857 0.931016
-5.71603 -48.9015 83.2146 -0.399094 0.032771 0.91632
-6.85767 -48.7092 82.6392 -0.483635 0.0758775 0.871778
-7.89354 -48.187 82.0017 -0.508607 0.0757716 0.857524
-8.55665 -47.4481 81.5237 -0.521957 0.060875 0.850471
-9.05439 -46.5428 81.1578 -0.56879 0.0741442 0.819132
-9.42596 -45.622 80.8173 -0.571549 0.0670475 0.817795
-9.77294 -44.6642 80.497 -0.586552 0.0677046 0.807074
-10.2047 -43.3236 80.082 -0.594358 0.0462322 0.802871
-10.5758 -42.4095 79.7572 -0.59848 0.0440741 0.7999
-11.1019 -41.1325 79.265 -0.604074 0.0720188 0.793663
-11.4522 -40.0498 78.897 -0.60669 0.0736171 0.791522
-11.5867 -39.0285 78.6868 -0.60379 0.0848063 0.792619
-10.9832 -37.4338 78.9414 -0.57986 0.103011 0.808177
-9.70073 -36.9083 79.7045 -0.519953 0.16439 0.838219
-8.44795 -36.942 80.4649 -0.504323 0.161215 0.848293
-7.54958 -37.0986 81.0362 -0.512938 0.149284 0.845345
-6.69697 -37.2491 81.5631 -0.448311 0.1511 0.879506
-5.52006 -37.3844 82.1012 -0.370324 0.138416 0.918015
-5.1075 -36.7204 82.1565 -0.364043 0.191439 0.911281
-6.77148 -36.5238 81.3921 -0.412688 0.19788 0.888964
-7.89263 -36.3087 80.6874 -0.51262 0.151558 0.845131
-8.87247 -36.1674 80.0609 -0.51834 0.150245 0.841873
-10.1811 -36.2148 79.2691 -0.509204 0.145018 0.847942
-11.2635 -36.7417 78.6317 -0.588321 0.125113 0.798472
-12.0667 -38.145 78.1406 -0.665569 0.0976567 0.739545
-12.1312 -39.8188 78.3529 -0.63672 0.100591 0.763226
-11.8488 -40.832 78.6584 -0.650522 0.039572 0.758454
-11.4949 -41.7517 79.0083 -0.650392 0.0416037 0.758451
-11.1277 -42.6345 79.3403 -0.6249 0.0261042 0.780268
-10.7305 -43.6163 79.6948 -0.625983 0.0421902 0.778573
-10.4166 -44.567 80.0093 -0.620614 0.0521112 0.782383
-10.1027 -45.5177 80.3213 -0.620369 0.0519521 0.782588
-9.75934 -46.4498 80.6497 -0.616602 0.0484779 0.785781
-9.38252 -47.3676 81.0014 -0.615043 0.0574461 0.786342
-8.90052 -48.188 81.3869 -0.519501 0.0841837 0.850313
-7.64724 -49.2112 82.2232 -0.499183 0.0664464 0.863944
-6.68797 -49.5361 82.7994 -0.482361 0.044197 0.87453
-5.62282 -49.6236 83.288 -0.397639 0.0640659 0.9153
-4.51149 -49.6259 83.7621 -0.363697 0.0468218 0.929693
-3.38451 -49.6302 84.078 -0.257991 0.076693 0.963096
-2.29879 -49.6424 84.3689 -0.230211 0.0594185 0.970723
-1.08121 -49.5982 84.5665 -0.15988 0.0307748 0.986655
0.270257 -49.5496 84.679 -0.0134286 0.0477596 0.998481
1.52385 -49.5077 84.6342 0.0742013 0.047621 0.996104
3.01767 -49.5128 84.4699 0.156621 0.0521551 0.986164
4.04775 -49.5666 84.2947 0.182473 0.0680291 0.980755
5.02747 -49.6067 83.9919 0.313098 0.0112512 0.94965
6.01829 -49.6399 83.664 0.353499 0.0354772 0.933549
6.94615 -49.6519 83.2575 0.402177 0.0515295 0.914111
7.9474 -49.5607 82.786 0.528631 0.0675045 0.845068
8.94058 -49.0772 82.0811 0.563373 0.0487872 0.824761
9.69517 -48.4043 81.5326 0.558389 0.0412769 0.828549
10.5533 -47.6122 80.8779 0.601409 0.0167871 0.798759
11.5568 -46.5375 80.0683 0.643606 0.0463374 0.76282
12.153 -45.2842 79.4758 0.6599 0.00623007 0.751321
12.4322 -43.8056 79.1386 0.641838 0.0698926 0.763649
12.3429 -42.659 79.1072 0.639495 0.0695205 0.765637
11.8943 -41.3601 79.3672 0.63784 0.0669018 0.767257
11.1942 -40.2346 79.8381 0.605361 0.0773934 0.791321
10.4601 -39.4674 80.2902 0.579802 0.0698439 0.811758
9.71782 -38.9289 80.7716 0.554738 0.0745917 0.82819
8.26369 -38.1885 81.4707 0.472097 0.19841 0.858928
7.29422 -37.7554 81.8618 0.43576 0.20204 0.877093
6.27068 -37.2802 82.2228 0.328964 0.209487 0.920814
5.29464 -36.8342 82.468 0.317456 0.220273 0.922243
4.29121 -36.4504 82.6373 0.202815 0.230908 0.951603
3.27878 -36.2068 82.7932 0.200115 0.22741 0.953006
1.70319 -36.1269 82.9145 0.0790115 0.227478 0.970573
-0.0618907 -36.3066 83.0149 0.0174466 0.233484 0.972095
-1.27699 -36.5208 82.9533 -0.0935209 0.237229 0.966941
-2.47382 -36.6838 82.848 -0.13345 0.227488 0.964571
-3.47952 -36.7441 82.7191 -0.215654 0.209156 0.950362
-4.83537 -36.7323 82.2617 -0.337428 0.183269 0.923186
-5.02931 -36.0403 82.0403 -0.3415 0.205215 0.917153
-3.71723 -36.0654 82.5021 -0.299345 0.208513 0.930974
-2.64609 -36.0283 82.6663 -0.129876 0.233039 0.963756
-1.01392 -35.7932 82.7998 -0.0929769 0.235965 0.967303
0.2244 -35.5713 82.8261 0.00941878 0.245409 0.969374
1.41822 -35.4273 82.7737 0.0538672 0.224603 0.972631
2.65735 -35.4312 82.6825 0.0711979 0.209294 0.975256
3.91299 -35.6203 82.5163 0.204652 0.227529 0.952013
4.97237 -35.9602 82.3573 0.309957 0.232396 0.92191
5.93685 -36.3988 82.1416 0.321609 0.220532 0.920737
6.91043 -36.8657 81.8424 0.43257 0.205939 0.877765
7.91127 -37.3167 81.455 0.43415 0.203187 0.877621
8.88106 -37.7564 81.0348 0.446792 0.15004 0.881967
9.97426 -38.3001 80.5281 0.571959 0.111913 0.811994
10.8207 -38.8966 79.977 0.584937 0.0814458 0.806978
11.9052 -40.1616 79.2453 0.630874 0.0650775 0.773151
12.5978 -41.44 78.7893 0.641979 0.0664517 0.763819
12.9534 -42.6168 78.5884 0.647841 0.0623965 0.759208
12.959 -44.2909 78.7279 0.655429 0.0683713 0.752156
12.7924 -45.2602 78.908 0.660379 0.0187243 0.750653
12.3088 -46.5301 79.3773 0.674796 0.0464302 0.736542
11.722 -47.4718 79.9748 0.664897 0.0236026 0.746087
10.6864 -48.3646 80.7907 0.603036 0.0128429 0.797606
9.63632 -49.4276 81.6279 0.583896 0.034439 0.810471
8.91576 -50.0591 82.1525 0.564329 0.0408827 0.824537
7.55896 -50.3273 83.0259 0.452693 0.0300757 0.889364
6.64364 -50.3369 83.4325 0.402324 0.0562055 0.91377
5.41643 -50.3092 83.8899 0.313353 0.0397386 0.948804
4.4589 -50.274 84.2031 0.273184 0.0162459 0.960719
3.02246 -50.2158 84.497 0.160504 0.0319457 0.986408
1.33114 -50.2145 84.6815 0.0463553 0.0386847 0.997828
-0.0534907 -50.2725 84.7017 -0.000556725 0.0210878 0.99973
-1.28186 -50.314 84.5732 -0.153912 0.0654099 0.985907
-2.79315 -50.3218 84.2932 -0.230211 0.0594185 0.970723
-3.84418 -50.3032 84.0085 -0.257991 0.076693 0.963096
-4.95634 -50.3146 83.6227 -0.363697 0.0468218 0.929693
-6.09058 -50.3123 83.133 -0.397639 0.0640659 0.9153
-7.1532 -50.2046 82.5765 -0.482361 0.044197 0.87453
-7.99826 -49.8871 82.0688 -0.498965 0.0607555 0.864487
-8.87702 -49.2376 81.4748 -0.593103 0.0269239 0.804525
-9.66854 -48.2082 80.8396 -0.591042 0.0425524 0.805517
-10.084 -47.2548 80.4445 -0.615043 0.0574461 0.786342
-10.422 -46.3589 80.124 -0.619484 0.0487872 0.783489
-10.7567 -45.3929 79.7942 -0.622198 0.0523581 0.781106
-11.0528 -44.4597 79.4967 -0.624924 0.0546623 0.778769
-11.3824 -43.5436 79.1667 -0.625775 0.0401779 0.778814
-11.7532 -42.6361 78.8393 -0.639218 0.0358145 0.767937
-12.1262 -41.7081 78.4645 -0.650392 0.0416037 0.758451
-12.482 -40.7832 78.1128 -0.650522 0.039572 0.758454
-12.7137 -39.5204 77.7484 -0.696309 0.0933498 0.711645
-12.6468 -38.1427 77.6158 -0.667639 0.096638 0.737849
-12.0432 -36.6321 78.0084 -0.640071 0.0954927 0.761271
-11.0708 -35.7093 78.6591 -0.612884 0.087018 0.785367
-10.2343 -35.4358 79.1267 -0.501389 0.120251 0.856821
-8.87285 -35.4196 79.9272 -0.51221 0.134045 0.84813
-7.98176 -35.5614 80.4987 -0.513377 0.153015 0.844407
-7.0626 -35.7422 81.0685 -0.423634 0.216549 0.879513
-6.1597 -35.9181 81.5381 -0.395049 0.191227 0.898512
-5.23626 -36.0312 81.9603 -0.364043 0.191439 0.911281
-5.37597 -35.332 81.7487 -0.362313 0.204665 0.908861
-6.46551 -35.1596 81.206 -0.421539 0.22699 0.877939
-7.73702 -34.8752 80.523 -0.466105 0.188708 0.862277
-8.75877 -34.6883 79.8923 -0.503997 0.119867 0.855347
-9.90348 -34.6452 79.2123 -0.501665 0.119157 0.856814
-11.1195 -34.9049 78.531 -0.50622 0.115682 0.854609
-11.9233 -35.5336 77.974 -0.61388 0.0848526 0.784825
-12.5964 -36.3641 77.5035 -0.649131 0.0621433 0.758134
-13.014 -37.2274 77.2151 -0.649794 0.0614724 0.75762
-13.2618 -38.9371 77.1412 -0.678583 0.0762242 0.730523
-13.1383 -40.4797 77.4432 -0.698753 0.0759083 0.711324
-12.8702 -41.443 77.8104 -0.675165 0.0572872 0.734458
-12.4911 -42.3385 78.187 -0.65177 0.0438426 0.757149
-12.1031 -43.276 78.578 -0.639218 0.0358145 0.767937
-11.729 -44.2483 78.9391 -0.624707 0.0557276 0.778868
-11.4143 -45.2291 79.2595 -0.623718 0.0523012 0.779895
-11.1313 -46.1536 79.5482 -0.621181 0.0528267 0.781884
-10.7587 -47.1358 79.9057 -0.616654 0.0588797 0.784945
-10.415 -48.0785 80.2575 -0.612728 0.0660947 0.787524
-9.9004 -49.0945 80.7156 -0.59302 0.0268878 0.804595
-9.08605 -50.0393 81.3316 -0.592507 0.00953388 0.805503
-8.37275 -50.5272 81.8606 -0.58338 0.0096457 0.812076
-6.93834 -50.9715 82.7142 -0.466378 0.0278221 0.884148
-5.88497 -51.0022 83.2706 -0.431128 0.0463481 0.900087
-4.68627 -50.9863 83.7377 -0.338285 0.0244079 0.940726
-3.56777 -50.9793 84.1379 -0.298165 0.0514148 0.95192
-2.4596 -51.0118 84.3927 -0.203774 0.0429408 0.978076
-1.30741 -51.0243 84.6124 -0.138681 0.0232987 0.98859
-0.241362 -51.0011 84.7097 -0.047388 0.00485946 0.997892
1.36013 -50.937 84.7011 0.0202523 0.00390088 0.999737
2.5756 -50.8967 84.5701 0.122468 0.00836816 0.992433
3.88212 -50.9361 84.3371 0.234596 -0.00878173 0.972053
5.32239 -50.9863 83.9477 0.324161 0.0287358 0.945446
6.26723 -51.008 83.6077 0.343414 0.0229402 0.938902
7.58994 -51.0317 83.0043 0.494824 -0.00940579 0.868941
8.49712 -50.9961 82.4859 0.530674 0.0159166 0.846094
9.31456 -50.7294 81.9073 0.579285 0.0292187 0.814601
10.4294 -49.5313 81.0258 0.605491 0.0562943 0.793855
11.0696 -48.9205 80.5098 0.607732 0.0196275 0.793874
12.1879 -47.9791 79.5722 0.65432 0.00204264 0.756214
12.6818 -47.2538 79.0801 0.675396 0.044766 0.736094
13.0335 -46.366 78.7048 0.668566 0.0257618 0.742882
13.3492 -45.3654 78.4099 0.669654 0.00783 0.742632
13.5274 -43.8967 78.1926 0.659845 0.0657165 0.74852
13.514 -42.7189 78.1089 0.657503 0.0515195 0.75165
13.2821 -41.5226 78.2149 0.646481 0.0651462 0.760143
12.8757 -40.5889 78.4771 0.649281 0.0671508 0.757572
12.1831 -39.4887 78.9617 0.631443 0.0653589 0.772663
11.4176 -38.5674 79.4936 0.624981 0.0770159 0.776832
10.6679 -37.9457 79.9908 0.572353 0.110161 0.811958
9.70859 -37.4193 80.5583 0.503375 0.145476 0.849208
8.85453 -37.0139 80.9219 0.446792 0.15004 0.881967
7.55907 -36.4504 81.4472 0.410216 0.16573 0.896804
6.57711 -35.9775 81.8075 0.395456 0.187941 0.898686
5.62525 -35.515 82.0258 0.293699 0.199177 0.934916
4.62255 -35.1132 82.2419 0.205113 0.227978 0.951808
3.46883 -34.8225 82.4249 0.207731 0.224752 0.952016
2.14451 -34.6924 82.563 0.0595152 0.219073 0.973723
0.812815 -34.7748 82.6258 -0.000507039 0.223801 0.974633
-0.690908 -35.0303 82.6441 -0.080684 0.244099 0.966328
-1.73195 -35.2223 82.5901 -0.113028 0.248497 0.961914
-3.15423 -35.3781 82.4361 -0.131868 0.242311 0.961195
-4.39899 -35.3904 82.116 -0.300509 0.242434 0.922378
-4.54534 -35.385 82.0655 -0.324459 0.232887 0.91648
-4.42364 -34.7097 81.9203 -0.307989 0.253224 0.917059
-2.74889 -34.7039 82.321 -0.128287 0.246228 0.960673
-1.63222 -34.5188 82.4201 -0.113028 0.248497 0.961914
-0.174149 -34.2459 82.4818 -0.0625233 0.254924 0.964823
1.07376 -34.0231 82.4538 0.0215268 0.229138 0.972848
2.53168 -33.9874 82.3747 0.0466948 0.229644 0.972147
3.73686 -34.166 82.219 0.203148 0.206233 0.957176
4.74116 -34.4539 82.0676 0.244822 0.212654 0.944944
6.24057 -35.0688 81.7373 0.296568 0.202225 0.933347
7.12126 -35.5183 81.4757 0.381676 0.150537 0.911305
8.2003 -36.0153 81.0648 0.436707 0.166241 0.884109
9.19105 -36.4549 80.6564 0.442121 0.15747 0.88298
10.3515 -37.0124 80.0482 0.559587 0.139548 0.816939
11.2129 -37.5147 79.5463 0.586228 0.114035 0.800761
11.9483 -38.2388 79.0318 0.63046 0.0850025 0.771554
12.9526 -39.4805 78.3164 0.650099 0.0659414 0.756982
13.4876 -40.4689 77.9427 0.649022 0.0697069 0.757569
13.9391 -41.6348 77.6632 0.691364 0.064983 0.717196
14.0879 -43.0217 77.5886 0.756155 0.0375453 0.6533
14.0308 -44.2353 77.7284 0.758038 0.0400601 0.650979
13.9064 -45.2584 77.8695 0.713018 -0.0130703 0.701023
13.6545 -46.2976 78.0995 0.705218 0.00958944 0.708332
13.2282 -47.534 78.5855 0.700914 0.0393401 0.712159
12.7779 -48.3852 79.0624 0.665457 0.0242787 0.745588
12.1377 -48.9286 79.6227 0.644032 0.0449361 0.763675
11.2646 -49.6509 80.3969 0.623201 0.0471849 0.780287
10.604 -50.3543 80.9493 0.607081 0.0581106 0.792507
9.79292 -51.3072 81.5878 0.579672 0.028364 0.814355
8.85915 -51.6726 82.264 0.560144 0.0128635 0.827842
7.90154 -51.7042 82.8362 0.495338 0.0449989 0.867534
6.81179 -51.6889 83.4269 0.383252 0.0140091 0.922379
5.23089 -51.6486 83.9968 0.30921 0.00948977 0.950345
4.21783 -51.6239 84.2592 0.236962 0.0282877 0.971106
2.99777 -51.5981 84.5299 0.138923 0.0104919 0.990054
1.92149 -51.6334 84.6609 0.118106 0.0196366 0.992806
0.775436 -51.6609 84.7141 0.0218151 -0.00765363 0.999723
-0.871301 -51.7266 84.6509 -0.0902268 -0.00258263 0.995918
-1.93988 -51.7203 84.5275 -0.191677 0.0441797 0.980432
-3.12274 -51.6581 84.2827 -0.22901 0.0245044 0.972606
-4.22755 -51.6533 83.9297 -0.338285 0.0532861 0.939534
-5.47381 -51.6774 83.4786 -0.362356 0.0297798 0.930978
-6.65616 -51.7337 82.8807 -0.46808 0.0145819 0.883566
-7.60857 -51.5742 82.3739 -0.488661 -8.09272e-05 0.872024
-8.65867 -51.1918 81.6633 -0.568419 0.0278651 0.822198
-9.53552 -50.6217 81.008 -0.598842 0.0187367 0.800602
-10.5503 -49.2617 80.2233 -0.653521 0.0185374 0.755512
-10.9249 -48.4008 79.8349 -0.684692 0.0324086 0.728091
-11.396 -47.1128 79.3365 -0.678847 0.0235498 0.733902
-11.7512 -46.0625 78.9764 -0.678435 0.0218933 0.734334
-12.067 -44.9533 78.6492 -0.682735 0.0100806 0.730597
-12.4121 -43.9061 78.3144 -0.685371 0.010299 0.728104
-12.8305 -42.9594 77.8977 -0.688419 0.0173232 0.725107
-13.2391 -42.1115 77.4886 -0.710542 0.0425769 0.701198
-13.7004 -40.5675 76.866 -0.729027 0.0490656 0.68272
-13.8532 -39.3928 76.6339 -0.696891 0.062779 0.713989
-13.7998 -38.2441 76.5652 -0.684423 0.060585 0.726367
-13.5778 -37.1905 76.7084 -0.678859 0.039733 0.733183
-13.2372 -36.2722 76.9494 -0.646158 0.0603113 0.760815
-12.6831 -35.3968 77.3501 -0.646794 0.0633661 0.760025
-11.9352 -34.6498 77.869 -0.611177 0.0903395 0.78629
-11.2204 -34.1433 78.3543 -0.559915 0.116246 0.818284
-9.72606 -33.8693 79.2065 -0.503664 0.126631 0.85454
-8.73921 -33.9447 79.7819 -0.478574 0.166623 0.862082
-7.86149 -34.125 80.3031 -0.454113 0.178191 0.872519
-6.7839 -34.3785 80.8765 -0.425699 0.179874 0.886807
-5.63622 -34.5968 81.4718 -0.373446 0.218605 0.899107
-4.89262 -34.677 81.7511 -0.312675 0.253488 0.915412
-4.98198 -34.0051 81.5343 -0.311088 0.255628 0.915354
-3.65051 -34.0151 81.9764 -0.284223 0.262772 0.921938
-2.43012 -34.04 82.1898 -0.126223 0.250097 0.959958
-1.4063 -33.6779 82.2304 -0.113342 0.247254 0.962198
-0.293561 -33.6004 82.2944 -0.0588458 0.269875 0.961093
0.821222 -33.1861 82.2609 -0.0158486 0.223279 0.97357
2.52013 -33.2625 82.2066 0.0456933 0.225714 0.973121
3.5276 -33.2988 82.0601 0.162444 0.250545 0.954379
4.57915 -33.5491 81.9067 0.241469 0.210223 0.946502
5.82295 -34.0018 81.6358 0.284385 0.212979 0.934754
6.71774 -34.5267 81.4654 0.298363 0.198388 0.93359
7.73603 -35.0397 81.1088 0.413056 0.159084 0.896703
8.8797 -35.4548 80.6303 0.431704 0.146022 0.890117
9.79069 -35.8756 80.2444 0.515654 0.146514 0.843249
11.249 -36.8014 79.4163 0.549206 0.12294 0.826594
12.3313 -37.7392 78.6629 0.623891 0.0873885 0.776526
13.0582 -38.6155 78.1659 0.643866 0.0462399 0.763735
13.7154 -39.6203 77.6716 0.648373 0.0563429 0.759176
14.307 -40.6547 77.1858 0.726692 0.0588993 0.684402
14.4525 -41.6725 77.1102 0.739487 0.0421053 0.67156
14.5507 -43.13 77.056 0.75011 0.0305818 0.660492
14.5404 -44.2364 77.1364 0.754472 0.0418754 0.654995
14.493 -45.4464 77.2687 0.733497 0.0144793 0.678246
14.3255 -46.5228 77.4491 0.703362 0.037835 0.709824
13.9198 -47.3523 77.8946 0.702568 0.0394155 0.710524
13.5967 -48.2405 78.2631 0.696863 0.0473806 0.715571
12.7777 -49.3266 79.1042 0.662667 0.0353767 0.74766
12.1042 -49.827 79.7039 0.644031 0.0484382 0.763464
11.3698 -50.5828 80.3608 0.637145 0.039239 0.769722
10.8026 -51.2439 80.8577 0.618984 0.0219745 0.784613
10.193 -52.0662 81.3248 0.598531 0.0155421 0.800938
9.27764 -52.4639 81.993 0.559867 0.012123 0.828013
8.24082 -52.4736 82.6595 0.540593 -0.00427507 0.841273
7.35744 -52.5771 83.196 0.454929 0.0503391 0.887911
5.73008 -52.4124 83.8426 0.308909 0.0121203 0.950307
4.61662 -52.4049 84.17 0.282063 -0.0111894 0.959331
3.58051 -52.4203 84.4403 0.194813 0.0203148 0.979548
2.4358 -52.4552 84.6181 0.134847 0.013656 0.990584
1.12308 -52.3364 84.7006 0.0265597 -0.00714626 0.999621
0.0551857 -52.5874 84.7321 -0.0332873 0.0136661 0.997423
-1.04678 -52.3459 84.6302 -0.0913611 -0.00744851 0.99579
-2.08681 -52.5895 84.5334 -0.144368 0.0162852 0.987612
-3.63546 -52.455 84.1537 -0.252443 0.00929851 0.967564
-4.73185 -52.4206 83.7914 -0.344012 0.0493115 0.937639
-5.77165 -52.3612 83.3588 -0.387032 0.0395346 0.920557
-7.03592 -52.4475 82.6913 -0.468263 0.0143694 0.883472
-8.01817 -52.3212 82.1301 -0.526474 0.0137366 0.849519
-8.84512 -51.9609 81.5683 -0.57498 0.0381169 0.81709
-9.9706 -51.3537 80.7029 -0.610407 0.0290899 0.791479
-10.851 -49.9364 79.9774 -0.627093 -0.00405805 0.778934
-11.3728 -49.1466 79.4509 -0.684674 0.0418068 0.727642
-11.71 -48.2225 79.0812 -0.684149 0.0287783 0.728721
-12.0609 -46.9846 78.7167 -0.679615 0.0223334 0.733229
-12.3452 -45.9928 78.4199 -0.682456 0.0240407 0.730531
-12.7434 -44.7053 78.0144 -0.685644 0.0116627 0.727827
-13.2068 -43.7223 77.5563 -0.68898 0.0124478 0.724673
-13.6989 -42.8714 77.0705 -0.688546 0.0174416 0.724983
-14.0565 -41.4258 76.5372 -0.733519 0.0562296 0.677173
-14.3811 -40.4866 76.1542 -0.706353 0.0356762 0.70696
-14.5135 -39.4996 75.9722 -0.710855 0.0461177 0.701825
-14.2879 -37.9256 76.0918 -0.680502 0.0435505 0.731449
-14.1236 -36.8349 76.1775 -0.693112 0.0427793 0.719559
-13.7916 -35.8001 76.4497 -0.662802 0.0306438 0.746788
-12.816 -34.4942 77.1627 -0.633293 0.0510413 0.772227
-12.0456 -33.924 77.6936 -0.607479 0.0982781 0.788226
-11.2857 -33.2155 78.1763 -0.555786 0.118676 0.820864
-10.0167 -33.1796 78.93 -0.507146 0.117413 0.853783
-8.97419 -33.1756 79.5132 -0.464442 0.130827 0.875873
-7.96389 -33.1338 80.0424 -0.451062 0.187917 0.872285
-6.98385 -33.4411 80.588 -0.430278 0.18366 0.883815
-5.85714 -33.7164 81.1499 -0.317396 0.240751 0.917207
-5.36373 -33.9454 81.3842 -0.321393 0.250064 0.913304
-5.09431 -33.9985 81.4941 -0.316929 0.255311 0.913427
