-1.51367 -43.1193 85.4786 -0.122335 0.0902409 0.988377
-0.34651 -42.9622 85.5889 -0.0396573 0.104432 0.991789
0.631136 -42.5658 85.522 0.0315293 0.103856 0.994088
1.7283 -43.1532 85.5489 0.0812764 0.12104 0.987881
3.50696 -43.2494 85.3095 0.144853 0.111422 0.983132
4.51628 -43.3307 85.0969 0.234242 0.124961 0.964101
2.86181 -42.6721 85.3301 0.133552 0.134342 0.981823
1.56872 -42.4059 85.466 0.0893091 0.133664 0.985828
0.478631 -42.2434 85.4932 0.0357993 0.111004 0.993105
-0.540919 -42.4775 85.5155 -0.0973162 0.107796 0.989396
-1.41469 -42.8517 85.4667 -0.114644 0.0982028 0.988473
-1.32796 -43.7874 85.5634 -0.12174 0.0911674 0.988366
-2.80646 -43.7325 85.3078 -0.218687 0.0943535 0.971223
-3.86959 -43.8036 85.0538 -0.31662 0.0620086 0.943364
-4.78865 -43.6971 84.6526 -0.403594 0.0901109 0.91049
-6.1169 -43.5716 84.0222 -0.439529 0.089991 0.893709
-6.47316 -42.4706 83.7363 -0.438639 0.0885636 0.894289
-5.48277 -42.5094 84.227 -0.421803 0.0903731 0.901959
-4.05028 -42.3111 84.8241 -0.388998 0.111955 0.91441
-2.89837 -42.1445 85.1229 -0.224956 0.109375 0.96821
-1.19124 -41.9266 85.3861 -0.119351 0.148605 0.981664
-0.0701684 -41.6725 85.4467 0.00980169 0.159516 0.985857
0.983882 -41.6226 85.3952 0.0437344 0.121604 0.991615
2.2794 -41.7279 85.2673 0.137944 0.14616 0.979593
3.35587 -42.0125 85.1689 0.151601 0.165373 0.974159
4.45805 -42.428 84.9972 0.217399 0.14356 0.965436
5.43685 -42.8054 84.7998 0.253483 0.109318 0.960987
6.70403 -43.8523 84.3768 0.425441 0.141393 0.893873
5.29527 -44.0047 84.9585 0.264947 0.094801 0.959591
3.98158 -43.9727 85.314 0.248381 0.112321 0.961882
2.69178 -43.8997 85.5136 0.150059 0.150657 0.977106
1.60752 -43.8145 85.6364 0.0517631 0.13041 0.989821
0.521179 -43.6784 85.6495 0.0159741 0.139645 0.990057
-0.6119 -43.7325 85.6458 -0.123474 0.0990278 0.987358
-0.659077 -44.4421 85.7168 -0.08923 0.0974681 0.990485
-2.12164 -44.4524 85.5254 -0.13576 0.103744 0.985285
-3.69608 -44.4609 85.1385 -0.242313 0.0597514 0.968356
-4.70873 -44.4368 84.7412 -0.38978 0.0630655 0.918746
-5.75025 -44.4215 84.2918 -0.426231 0.089782 0.90004
-6.79896 -44.0271 83.7412 -0.432256 0.101971 0.895967
-7.30092 -43.0709 83.3742 -0.509182 0.0782704 0.857075
-7.50042 -41.8372 83.137 -0.506619 0.0830863 0.858157
-6.31412 -41.7452 83.7427 -0.438741 0.0883816 0.894257
-4.8483 -41.6871 84.4079 -0.391982 0.116713 0.912523
-3.74136 -41.5989 84.8637 -0.305324 0.114826 0.941639
-1.89937 -41.3231 85.2082 -0.187806 0.156987 0.969576
-0.8078 -41.0986 85.3048 -0.110657 0.148715 0.982643
0.275275 -40.93 85.3248 -0.00875307 0.149985 0.98816
1.71811 -40.9234 85.2244 0.131467 0.140959 0.981223
3.01463 -41.147 85.0748 0.133858 0.151815 0.97927
4.03295 -41.4915 84.9526 0.19293 0.157718 0.968164
5.26016 -41.9853 84.7341 0.294343 0.14325 0.943336
6.23988 -42.3812 84.409 0.413224 0.0737574 0.907636
7.27516 -42.8294 83.9702 0.427389 0.0748468 0.900885
8.29982 -43.3711 83.4911 0.456585 0.057351 0.887829
7.67052 -44.2969 83.89 0.468 0.0711787 0.880811
6.4365 -44.5953 84.5848 0.476341 0.0755511 0.876007
5.12434 -44.681 85.0845 0.268964 0.123073 0.955252
3.28194 -44.6112 85.5245 0.200865 0.100932 0.974405
2.12999 -44.542 85.6843 0.0780833 0.112067 0.99059
0.279716 -44.4379 85.7602 0.0215435 0.135455 0.990547
0.201446 -44.4349 85.7613 -0.0207652 0.114835 0.992301
-0.044084 -45.1467 85.815 -0.0500581 0.0923888 0.994457
-1.41421 -45.1492 85.6953 -0.132234 0.10188 0.985949
-2.58929 -45.1623 85.4789 -0.261849 0.0962672 0.960296
-3.89633 -45.1747 85.1327 -0.314887 0.0595316 0.944151
-5.22024 -45.1653 84.5854 -0.380011 0.0786444 0.921633
-6.34158 -45.0992 84.0751 -0.421304 0.0775369 0.903598
-7.40071 -44.4717 83.4657 -0.523468 0.0952255 0.846703
-7.91372 -43.3048 83.0283 -0.511067 0.0734593 0.856396
-8.34659 -41.9168 82.6443 -0.516698 0.0947695 0.850748
-8.11573 -41.0464 82.6781 -0.525943 0.106313 0.843849
-7.22334 -41.0515 83.2242 -0.473547 0.0875807 0.875601
-6.28597 -41.0419 83.6737 -0.419176 0.121287 0.899764
-5.2543 -41.0183 84.1431 -0.393148 0.122826 0.911233
-3.88356 -40.9067 84.7126 -0.370563 0.145411 0.916966
-2.73803 -40.7524 84.9532 -0.190584 0.155117 0.969337
-1.488 -40.5037 85.1329 -0.112786 0.155989 0.981268
-0.0214729 -40.2562 85.2138 -0.0650671 0.152623 0.986003
1.28541 -40.1835 85.181 0.0767879 0.147706 0.984465
2.52707 -40.2736 85.051 0.120509 0.10944 0.986546
3.49525 -40.5252 84.9162 0.169977 0.118166 0.97832
4.92901 -41.0811 84.7024 0.258423 0.123206 0.957087
5.95199 -41.4865 84.3954 0.343225 0.152197 0.926839
6.97308 -41.9412 84.0369 0.423936 0.0798929 0.902098
8.00341 -42.3766 83.5748 0.437937 0.078872 0.895539
8.88022 -42.8128 83.1555 0.457659 0.0575045 0.887266
9.47998 -43.7111 82.8575 0.572325 0.083974 0.815683
8.61079 -44.6951 83.4218 0.474834 0.0488041 0.878721
7.72493 -45.0573 83.9246 0.475245 0.0801915 0.876188
6.29561 -45.3104 84.7245 0.476269 0.0776621 0.875863
5.33727 -45.3535 85.0851 0.339781 0.0345821 0.939869
3.81988 -45.3166 85.487 0.202659 0.0997084 0.974157
2.72208 -45.2627 85.7058 0.175938 0.119264 0.976707
1.68781 -45.2146 85.7948 0.0683174 0.115214 0.990986
0.663721 -45.1689 85.8501 -0.0123089 0.112225 0.992793
0.547319 -45.8757 85.9045 0.00800939 0.0604363 0.996507
2.11859 -45.935 85.8004 0.0771477 0.0480294 0.99584
3.21265 -45.9764 85.6645 0.193308 0.0739181 0.97835
4.32422 -46.0232 85.4452 0.222113 0.0513545 0.973069
5.51942 -46.0376 85.045 0.345004 0.0603911 0.936656
6.80176 -45.9613 84.5068 0.473477 0.0793832 0.877214
7.74414 -45.8071 83.9844 0.473911 0.082452 0.876704
8.7688 -45.4704 83.388 0.484211 0.0833972 0.870967
9.82339 -44.6812 82.7035 0.577368 0.0694735 0.813523
10.2397 -43.5771 82.304 0.580434 0.0939541 0.808869
9.59376 -42.4673 82.6334 0.572828 0.0987206 0.813697
8.6919 -41.9101 83.1934 0.512693 0.0788745 0.8522
7.77796 -41.5301 83.6109 0.437551 0.073872 0.896154
6.60704 -41.0372 84.098 0.355318 0.113599 0.927641
5.54774 -40.5812 84.4316 0.347365 0.110047 0.93121
4.55568 -40.1439 84.6782 0.237818 0.130847 0.960354
3.50375 -39.7624 84.8259 0.175979 0.113972 0.977772
2.49433 -39.5116 84.9754 0.139627 0.106329 0.983878
1.36895 -39.4677 85.0592 0.0396586 0.165521 0.985394
-0.280867 -39.5768 85.1017 -0.0388852 0.15211 0.987026
-1.58899 -39.8123 85.0208 -0.137956 0.145118 0.978949
-2.59157 -40.022 84.8692 -0.18691 0.148283 0.971112
-3.57309 -40.1797 84.7005 -0.272399 0.158558 0.945067
-4.64566 -40.2915 84.3058 -0.374828 0.148791 0.914589
-6.05282 -40.3461 83.688 -0.415215 0.123588 0.901284
-7.15304 -40.3307 83.1762 -0.458868 0.118089 0.879209
-8.03467 -40.2302 82.6236 -0.525268 0.111394 0.843614
-9.06187 -40.2382 81.9927 -0.520973 0.0883143 0.848772
-9.1532 -41.5759 82.0859 -0.547473 0.101379 0.830658
-8.69771 -43.0408 82.5378 -0.541809 0.0694219 0.836832
-8.29327 -44.1627 82.8754 -0.518527 0.0851972 0.850667
-7.8675 -45.0546 83.238 -0.532807 0.074414 0.842957
-7.10934 -45.7115 83.7523 -0.475886 0.0342439 0.878135
-5.53715 -45.8762 84.5154 -0.399863 0.0776634 0.913015
-3.8947 -45.8885 85.162 -0.325406 0.0274768 0.944851
-2.16852 -45.8765 85.6653 -0.199107 0.100249 0.972733
-1.11567 -45.8306 85.8004 -0.0884486 0.0807859 0.992632
0.0506065 -45.8618 85.881 -0.0440072 0.082203 0.995643
0.24546 -46.5707 85.9491 0.00605763 0.061231 0.996561
1.54969 -46.6093 85.8708 0.0680339 0.040397 0.996855
2.72643 -46.6605 85.7638 0.117565 0.0337548 0.992475
4.01133 -46.7084 85.5445 0.221354 0.0246239 0.974511
5.0369 -46.728 85.2673 0.344629 0.0605468 0.936784
6.04704 -46.7209 84.8952 0.34299 0.0625098 0.937254
7.33535 -46.6237 84.2839 0.476925 0.100878 0.873134
8.90255 -46.2244 83.3858 0.483569 0.0841179 0.871254
9.88262 -45.6457 82.7409 0.58179 0.0582446 0.811237
10.5399 -44.9089 82.2088 0.58687 0.061236 0.807356
10.9333 -44.0544 81.8613 0.579405 0.0815414 0.810855
10.7006 -42.5993 81.863 0.600065 0.0781378 0.795415
9.8354 -41.7541 82.3919 0.568436 0.072234 0.819549
9.06745 -41.3217 82.883 0.54567 0.0909483 0.832613
8.19745 -40.9456 83.3579 0.437551 0.073872 0.896154
6.57751 -40.2777 84.0112 0.366942 0.120273 0.922426
5.27278 -39.7005 84.383 0.297842 0.146627 0.943287
4.28699 -39.2832 84.6124 0.197989 0.196028 0.960377
3.24422 -38.925 84.7466 0.188613 0.195793 0.962335
2.2643 -38.7364 84.8844 0.100716 0.215243 0.970088
1.16101 -38.7514 84.9463 0.040371 0.180234 0.98264
0.0427757 -38.8013 84.9642 -0.0183816 0.176216 0.98411
-1.31941 -39.0404 84.9442 -0.130502 0.142533 0.979869
-2.36975 -39.2732 84.7919 -0.176502 0.160674 0.971098
-3.44147 -39.4737 84.6181 -0.272385 0.162456 0.944386
-4.38757 -39.5852 84.2733 -0.357194 0.172666 0.917932
-5.41914 -39.6428 83.8833 -0.399115 0.120455 0.908855
-6.71521 -39.6399 83.2961 -0.414487 0.109113 0.903486
-7.72195 -39.5305 82.7226 -0.503423 0.12618 0.854771
-8.74239 -39.391 82.0827 -0.506277 0.101409 0.856385
-9.97541 -39.8696 81.3756 -0.562758 0.0849564 0.821616
-9.92931 -41.0804 81.5159 -0.542419 0.0886532 0.835319
-9.67143 -42.0371 81.7887 -0.568054 0.0573442 0.820991
-9.3288 -43.0618 82.0976 -0.572385 0.0647276 0.817427
-8.93035 -44.2748 82.4726 -0.56868 0.0738816 0.819173
-8.57569 -45.1753 82.7986 -0.547263 0.0748452 0.833488
-8.05498 -46.0664 83.2082 -0.521129 0.0518344 0.851457
-7.2319 -46.5028 83.7085 -0.508129 0.0305982 0.860736
-6.29007 -46.574 84.1964 -0.444125 0.0382545 0.895147
-5.29459 -46.5916 84.6585 -0.33518 0.0514488 0.940247
-4.09831 -46.6009 85.1063 -0.349406 0.0249307 0.93664
-3.02508 -46.6072 85.4585 -0.299739 0.027691 0.953617
-1.87246 -46.5865 85.7683 -0.119594 0.0512938 0.991322
-0.706085 -46.5654 85.892 -0.102002 0.0690035 0.992386
-0.453241 -46.5639 85.9182 -0.0731459 0.0786531 0.993729
-0.608952 -47.2562 85.9512 -0.113958 0.0493075 0.991974
-1.84365 -47.2945 85.797 -0.126555 0.0315071 0.991451
-3.01623 -47.319 85.4828 -0.303355 0.0300938 0.952401
-4.17745 -47.3099 85.0953 -0.334017 0.0513012 0.940657
-5.17708 -47.3048 84.7568 -0.319673 0.0778107 0.944327
-6.24541 -47.297 84.261 -0.458127 0.0648716 0.886516
-7.27844 -47.241 83.7081 -0.494698 0.0582451 0.866566
-8.51514 -46.6793 82.9701 -0.532766 0.074069 0.841009
-9.01231 -45.8515 82.5633 -0.558385 0.0726169 0.826396
-9.57786 -44.3331 82.032 -0.568589 0.0854187 0.818167
-10.1128 -42.6346 81.5249 -0.568378 0.0544858 0.820958
-10.4723 -41.5066 81.1865 -0.616556 0.0653998 0.784267
-10.7042 -40.5071 80.9127 -0.611331 0.0768366 0.787097
-10.6962 -39.2516 80.7742 -0.591206 0.108655 0.798995
-9.94471 -38.5771 81.2253 -0.56176 0.141249 0.814352
-8.7794 -38.6332 81.9545 -0.507869 0.143264 0.849437
-7.52075 -38.8485 82.7404 -0.503423 0.12618 0.854771
-6.09325 -38.9595 83.4962 -0.403804 0.121048 0.90671
-4.82831 -38.9224 84.0097 -0.337755 0.124983 0.932899
-3.41557 -38.7813 84.4947 -0.3425 0.151017 0.926831
-2.17398 -38.5225 84.6979 -0.176673 0.201986 0.963321
-0.973535 -38.2515 84.8309 -0.0530561 0.247277 0.966824
0.304354 -38.0754 84.8148 -0.0163757 0.235336 0.97177
1.91358 -37.9956 84.7511 0.0556609 0.198365 0.978545
2.97576 -38.102 84.6242 0.147956 0.2296 0.961973
4.03671 -38.4319 84.4901 0.196415 0.197342 0.960426
4.97646 -38.8251 84.3708 0.247206 0.15422 0.954664
5.87177 -39.2197 84.1467 0.286831 0.109284 0.951727
6.83502 -39.64 83.8269 0.371514 0.10928 0.921973
8.07335 -40.1545 83.3533 0.484103 0.0936169 0.868065
9.03215 -40.5619 82.8031 0.531569 0.114584 0.839227
9.89375 -40.9818 82.2852 0.568995 0.0697717 0.819369
10.7407 -41.5973 81.7409 0.573794 0.0634263 0.816537
11.4835 -42.5454 81.2582 0.599038 0.0365278 0.799855
11.6663 -43.5834 81.2054 0.606894 0.100724 0.787991
11.4254 -44.5858 81.489 0.640519 0.0513241 0.766201
10.6445 -45.8888 82.2037 0.622722 0.0424354 0.781246
9.79682 -46.612 82.866 0.583965 0.0508323 0.810184
8.64051 -47.0906 83.5892 0.523241 0.0709443 0.848728
7.54691 -47.3257 84.2481 0.478168 0.099545 0.872609
6.61683 -47.4066 84.735 0.342964 0.064049 0.93716
5.34079 -47.4298 85.2007 0.342486 0.0626822 0.937424
4.21082 -47.4075 85.5179 0.253268 0.0451596 0.96634
2.97939 -47.3727 85.7616 0.118697 0.0441102 0.991915
1.93758 -47.3296 85.8716 0.0723836 0.0226222 0.997099
0.893979 -47.2846 85.9387 0.0581532 0.03742 0.997601
-0.110774 -47.2557 85.9933 0.00605763 0.061231 0.996561
-0.269913 -47.2542 85.9863 -0.0731459 0.0786531 0.993729
-0.294684 -47.9594 86.0217 -0.0417724 0.0369547 0.993767
-2.15553 -48.0175 85.777 -0.213657 0.0274707 0.972385
-3.84588 -48.0171 85.2673 -0.29877 0.0823692 0.950489
-5.44613 -48.0121 84.7247 -0.387942 0.0711804 0.915882
-6.97022 -48.016 83.9527 -0.462671 0.0858363 0.88214
-8.44281 -47.8089 83.1139 -0.536601 0.06998 0.839058
-9.06007 -47.1067 82.6145 -0.582745 0.0649901 0.810048
-9.71923 -45.7846 82.0438 -0.596784 0.0736992 0.798995
-10.0951 -44.6927 81.6711 -0.652588 0.0486673 0.756119
-10.417 -43.5943 81.3591 -0.608179 0.0363939 0.792852
-10.8482 -42.291 80.9519 -0.603656 0.050406 0.79565
-11.1633 -41.2355 80.5955 -0.630646 0.0705387 0.772805
-11.3534 -40.2751 80.365 -0.630472 0.0615383 0.773769
-11.3573 -39.0372 80.2513 -0.608131 0.10828 0.785897
-10.7404 -38.1206 80.5629 -0.589083 0.126825 0.798047
-9.78607 -37.802 81.176 -0.53523 0.16444 0.828546
-8.5897 -37.9301 81.9506 -0.513168 0.139148 0.84691
-7.31642 -38.161 82.755 -0.498072 0.133409 0.856778
-5.82351 -38.2705 83.5151 -0.392198 0.128884 0.910803
-4.29566 -38.1951 84.1047 -0.331857 0.132158 0.933973
-2.65834 -37.8987 84.4781 -0.161784 0.189947 0.968164
-1.63585 -37.6843 84.6179 -0.131921 0.242603 0.960023
-0.622389 -37.4873 84.6548 -0.0504873 0.246241 0.967303
0.816341 -37.3305 84.6399 -0.0120639 0.237775 0.971245
2.59197 -37.3005 84.492 0.146582 0.230644 0.961933
3.64616 -37.5169 84.3815 0.168626 0.212348 0.962158
4.57659 -37.898 84.2643 0.204136 0.199034 0.958495
5.52902 -38.3302 84.1464 0.248859 0.155478 0.954191
6.70188 -38.8328 83.7851 0.37233 0.1087 0.921713
7.86815 -39.3371 83.3452 0.449382 0.200757 0.870484
8.81487 -39.7177 82.8358 0.524194 0.0900584 0.846823
9.6762 -40.087 82.3411 0.551247 0.0975596 0.827957
10.5161 -40.5343 81.7955 0.582387 0.0999418 0.806744
11.4545 -41.2858 81.2115 0.58586 0.101927 0.803965
12.1409 -42.4443 80.7374 0.633382 0.0606043 0.771406
12.341 -43.6406 80.6714 0.636481 0.0559918 0.769199
12.0986 -44.6636 80.9349 0.63827 0.0463526 0.768416
11.5843 -45.7335 81.4373 0.646333 0.0468098 0.761581
11.0001 -46.5368 81.9629 0.618428 0.0468723 0.784421
10.2804 -47.1795 82.5537 0.601535 0.0365291 0.797575
9.12209 -47.7208 83.3555 0.535754 0.0930899 0.839226
7.68895 -48.0361 84.2476 0.485081 0.0935399 0.869451
6.57608 -48.1228 84.7979 0.334908 0.0336384 0.941146
5.2951 -48.1292 85.2341 0.309202 -0.00411969 0.950892
3.97318 -48.1051 85.6136 0.254927 0.0451772 0.965904
2.91005 -48.072 85.7995 0.126145 0.0430091 0.991077
1.72543 -48.0271 85.9028 0.0723836 0.0226222 0.997099
0.21818 -47.9788 85.9947 0.0549828 0.0233603 0.998212
0.542021 -48.7026 85.992 0.0553165 0.0166489 0.99833
-1.32102 -48.6926 85.9184 -0.137571 0.0525195 0.989098
-2.6069 -48.721 85.6858 -0.2465 0.0400742 0.96691
-3.80149 -48.725 85.3409 -0.296079 0.0751943 0.952051
-5.1849 -48.7225 84.8737 -0.334971 0.0592282 0.939966
-6.1474 -48.7281 84.4351 -0.443122 0.0898016 0.891947
-7.38168 -48.7468 83.7926 -0.484441 0.0786348 0.871282
-8.62853 -48.6327 83.0407 -0.566647 0.0384521 0.822528
-9.38577 -47.8885 82.4399 -0.585322 0.0593296 0.80862
-9.88507 -47.0648 82.0275 -0.614093 0.0518567 0.785884
-10.2563 -46.1317 81.6358 -0.656167 0.0557273 0.752542
-10.5999 -44.9992 81.2539 -0.636761 0.0341554 0.769596
-11.0556 -43.4952 80.8606 -0.614471 0.0290151 0.788383
-11.5225 -42.1321 80.3925 -0.632578 0.0752178 0.770828
-11.8535 -40.8323 79.994 -0.636455 0.0550021 0.769348
-12.0288 -39.4974 79.7541 -0.634513 0.0546077 0.770979
-11.8682 -38.4462 79.7637 -0.629604 0.0927472 0.77136
-11.2762 -37.6066 80.0898 -0.588016 0.123827 0.799315
-10.5225 -37.1203 80.5736 -0.561589 0.123204 0.817499
-9.67894 -37.023 81.1017 -0.537432 0.140607 0.831503
-8.69845 -37.1874 81.7595 -0.530578 0.142256 0.835594
-7.81838 -37.3399 82.3295 -0.511769 0.134246 0.848511
-6.32914 -37.5708 83.1597 -0.413826 0.185461 0.891208
-5.06684 -37.5738 83.7241 -0.379359 0.18172 0.907086
-3.82818 -37.4355 84.1539 -0.327251 0.141092 0.934345
-2.74739 -37.2082 84.3429 -0.125481 0.177889 0.975717
-1.49086 -36.9372 84.4307 -0.0870562 0.262986 0.96085
-0.50272 -36.7705 84.4706 -0.0695333 0.279702 0.957388
0.761484 -36.6241 84.4534 -0.00777712 0.278268 0.96047
1.96447 -36.539 84.4078 0.0916809 0.261739 0.958613
3.13089 -36.6398 84.2562 0.145903 0.22406 0.963591
4.12134 -36.9247 84.133 0.204297 0.240357 0.948924
5.99005 -37.795 83.929 0.266286 0.263562 0.925201
7.03319 -38.2464 83.5191 0.44499 0.205039 0.871747
8.38767 -38.7977 82.9503 0.450657 0.197201 0.870634
9.4841 -39.2502 82.3703 0.551959 0.0980544 0.827466
10.277 -39.6023 81.8499 0.576641 0.103833 0.810372
11.2203 -40.1829 81.2419 0.583211 0.0974444 0.80645
11.9249 -40.8126 80.8053 0.612795 0.0740264 0.785759
12.5168 -41.6484 80.3588 0.647857 0.0573151 0.759559
12.8532 -42.6047 80.1548 0.650708 0.0626488 0.756525
12.9241 -44.0137 80.1929 0.660904 0.0440437 0.749138
12.6503 -44.9802 80.4819 0.656412 0.0391631 0.753385
12.0052 -46.2429 81.1056 0.652135 0.0370769 0.757168
11.37 -47.148 81.6926 0.633133 0.0311525 0.773163
10.1408 -48.1 82.6993 0.603931 0.0339844 0.796067
9.29799 -48.4435 83.3116 0.577675 0.0256641 0.815863
7.97361 -48.7269 84.1583 0.494478 0.0701026 0.866292
6.52599 -48.8284 84.8185 0.32414 0.00609991 0.945987
5.51793 -48.8291 85.1601 0.308148 0.00119917 0.951237
3.83431 -48.8032 85.6826 0.275123 0.0191271 0.960647
2.5267 -48.7614 85.8536 0.0870713 0.0164031 0.996031
1.52432 -48.7274 85.9322 0.0711313 0.020657 0.997221
0.823132 -48.7108 85.9765 0.0596523 0.0196649 0.998013
1.00345 -49.4192 85.9781 0.0545662 0.0233966 0.998212
2.32314 -49.4557 85.8877 0.0777336 0.0380436 0.996245
3.40055 -49.489 85.7944 0.154867 0.0182109 0.985239
4.61446 -49.5146 85.4492 0.305952 0.0409623 0.951165
5.61153 -49.527 85.1283 0.301313 0.0188008 0.953054
6.63452 -49.5171 84.7828 0.322615 0.000298003 0.946527
7.64306 -49.4908 84.3896 0.431351 0.00423242 0.8998
8.65596 -49.3723 83.795 0.549872 0.0214564 0.834242
9.65308 -49.1317 83.0823 0.581481 0.0229971 0.813217
10.4921 -48.7486 82.4601 0.592913 0.0234052 0.804923
11.4085 -48.0533 81.7019 0.627882 0.0410744 0.777085
12.1939 -47.1452 80.9827 0.656928 0.0349067 0.753145
12.8061 -46.0888 80.4002 0.657115 0.0345583 0.752997
13.4153 -44.7305 79.8016 0.6612 0.0441015 0.748876
13.5518 -43.5473 79.6018 0.666117 0.0501147 0.74416
13.4086 -42.3707 79.6426 0.664092 0.0561992 0.745536
12.6851 -40.7091 80.1539 0.648012 0.050169 0.759974
11.95 -39.8969 80.6794 0.586565 0.0891978 0.804961
11.1331 -39.2724 81.2035 0.581027 0.0746448 0.810318
10.2689 -38.8414 81.7714 0.55739 0.0562219 0.828345
9.42851 -38.492 82.3134 0.56782 0.0797076 0.818834
8.56266 -38.1563 82.7177 0.452112 0.194044 0.870592
7.32526 -37.649 83.2295 0.443078 0.212906 0.870796
6.31823 -37.2083 83.6263 0.378335 0.256254 0.886555
5.4376 -36.7516 83.7883 0.318429 0.291648 0.901962
4.06687 -36.1429 83.9427 0.199558 0.245191 0.948714
3.0058 -35.8857 84.0998 0.172336 0.234504 0.95623
1.98999 -35.8348 84.1822 0.0431564 0.308239 0.950326
0.453159 -35.9773 84.2624 -0.00860775 0.284772 0.958539
-0.595067 -36.1053 84.2617 -0.0561164 0.292356 0.954662
-1.90995 -36.3234 84.2228 -0.0934422 0.267433 0.958994
-3.4884 -36.6492 84.1315 -0.129688 0.21273 0.967342
-5.08458 -36.8978 83.5763 -0.367187 0.198196 0.908768
-6.01746 -36.9078 83.1649 -0.414447 0.19092 0.889748
-7.3954 -36.6843 82.4425 -0.432617 0.175479 0.883888
-8.43294 -36.5061 81.8076 -0.524987 0.145734 0.838538
-9.65521 -36.2917 80.9932 -0.536717 0.140402 0.831998
-10.6405 -36.3798 80.3732 -0.536323 0.139524 0.832401
-11.4961 -36.8521 79.8264 -0.587379 0.105791 0.802367
-12.1406 -37.5683 79.4242 -0.675792 0.104969 0.729523
-12.5283 -38.5512 79.2165 -0.678984 0.111237 0.725677
-12.543 -40.2915 79.3803 -0.709911 0.0455578 0.702597
-12.3752 -41.3035 79.5886 -0.647123 0.0587169 0.759992
-12.0061 -42.4765 80.0053 -0.6567 0.0562416 0.751976
-11.4994 -43.9644 80.5317 -0.63846 0.028875 0.768624
-11.1921 -44.9649 80.7917 -0.625853 0.0106528 0.779687
-10.7243 -46.6283 81.2705 -0.644333 0.0690222 0.761624
-10.3197 -47.6305 81.7037 -0.644405 0.0622523 0.762115
-9.68798 -48.705 82.2773 -0.605045 0.0475178 0.794389
-8.69843 -49.4084 83.0285 -0.55787 0.0426223 0.828684
-7.8015 -49.4631 83.6133 -0.518284 0.0488694 0.853389
-6.90979 -49.4581 84.1203 -0.467232 0.0814244 0.880151
-5.64662 -49.4302 84.7045 -0.406436 0.0245591 0.913345
-4.51191 -49.4357 85.1501 -0.337175 0.0354548 0.940718
-2.83238 -49.4112 85.6335 -0.220993 -0.00087684 0.975272
-1.43554 -49.3868 85.9168 -0.18296 0.00078142 0.983115
0.214679 -49.3956 86.0217 0.0527845 0.0149592 0.99849
0.375019 -49.4009 86.0129 0.0553165 0.0166489 0.99833
0.189045 -50.1012 86.0421 0.0498448 0.0309325 0.998272
1.96762 -50.145 85.9415 0.0686079 0.0332748 0.997049
3.12117 -50.1784 85.8508 0.149166 0.0118614 0.985909
4.19346 -50.1955 85.6095 0.221154 -0.0144294 0.97513
5.21468 -50.2065 85.2859 0.306364 0.0411897 0.951023
6.49835 -50.2092 84.8469 0.339114 0.0500688 0.939403
7.77171 -50.1939 84.3595 0.446904 0.0464002 0.8885
8.75743 -50.1109 83.7419 0.525671 0.0195082 0.850406
10.0752 -49.7281 82.7921 0.586017 0.02573 0.809865
10.9447 -49.3107 82.1411 0.604922 0.0352307 0.795302
11.9884 -48.4557 81.2387 0.645747 0.0297672 0.762897
12.7774 -47.382 80.4848 0.655716 0.0410013 0.753867
13.3025 -46.4583 79.9834 0.657459 0.0347984 0.752686
13.8629 -45.3626 79.4231 0.731006 0.0314156 0.681139
14.0859 -44.3289 79.1357 0.751821 0.0147347 0.659202
14.1114 -43.0973 79.0686 0.666539 0.053388 0.743552
13.8019 -41.6781 79.2136 0.683128 0.0775595 0.726168
13.3844 -40.6379 79.5353 0.674787 0.0492221 0.73599
12.813 -39.8473 79.9754 0.644375 0.0706127 0.761399
12.1796 -39.1699 80.4422 0.613379 0.0765973 0.785059
11.4246 -38.6364 80.9424 0.587574 0.063434 0.80668
10.1058 -38.0404 81.8268 0.558482 0.0586119 0.827439
9.17303 -37.6985 82.2919 0.460668 0.199333 0.86489
8.09177 -37.2711 82.7464 0.441679 0.216281 0.870702
6.95293 -36.7661 83.1925 0.438794 0.220993 0.870988
5.73586 -36.14 83.4853 0.318429 0.291648 0.901962
4.76536 -35.6507 83.6706 0.206798 0.240546 0.948305
3.71394 -35.2868 83.7996 0.198154 0.237043 0.951076
2.67525 -35.1262 83.9591 0.0978212 0.237502 0.963309
1.64529 -35.1484 83.9898 0.0277324 0.22198 0.974602
0.0698637 -35.3379 84.0706 -0.0311116 0.283634 0.957914
-1.63484 -35.5599 84.028 -0.0546442 0.274284 0.959842
-2.74553 -35.8079 83.9866 -0.114042 0.276481 0.954199
-4.20048 -36.0832 83.7356 -0.346245 0.253956 0.903112
-5.51334 -36.2562 83.2579 -0.388102 0.193978 0.900748
-6.6205 -36.114 82.7124 -0.41722 0.16092 0.894445
-7.71305 -35.9052 82.1313 -0.508519 0.166331 0.844833
-9.12674 -35.625 81.22 -0.50898 0.154262 0.846736
-10.1043 -35.5075 80.5714 -0.535753 0.145816 0.831689
-11.1047 -35.7465 79.968 -0.561439 0.121924 0.817781
-12.2735 -36.713 79.1761 -0.633965 0.134428 0.761588
-12.8076 -37.5385 78.8035 -0.677788 0.0957827 0.728991
-13.0866 -38.5017 78.6862 -0.702344 0.0872351 0.705428
-13.1602 -39.6344 78.7147 -0.720202 0.0476239 0.691914
-12.9753 -41.2679 79.0536 -0.708427 0.072272 0.702041
-12.7121 -42.2539 79.3722 -0.665607 0.0474899 0.744789
-12.2447 -43.4871 79.8571 -0.666748 0.0350438 0.744459
-11.8858 -44.5722 80.2164 -0.647944 0.0163068 0.761281
-11.6197 -45.5137 80.4398 -0.637347 0.00230025 0.770574
-11.3698 -46.5626 80.7198 -0.634308 0.061583 0.770624
-11.0153 -47.6658 81.1184 -0.644457 0.0622155 0.762075
-10.5325 -48.6041 81.5946 -0.644483 0.0554672 0.762604
-10.0102 -49.4178 82.0565 -0.621142 0.03824 0.782755
-9.24329 -50.0434 82.6768 -0.585264 0.0232932 0.810262
-7.76325 -50.178 83.6751 -0.527374 0.0287236 0.848804
-6.88026 -50.1679 84.1674 -0.447185 0.0339 0.892878
-5.20569 -50.1274 84.918 -0.377076 0.0271028 0.925193
-3.56678 -50.1406 85.4872 -0.25634 0.0261815 0.964707
-2.57898 -50.1014 85.691 -0.191649 0.0317591 0.980902
-1.59477 -50.0824 85.8902 -0.189807 0.0224528 0.981517
-0.341967 -50.0895 86.0666 0.0112366 0.00129503 0.998843
-0.00581975 -50.809 86.0538 -0.0219349 -0.0292175 0.999329
-1.82233 -50.797 85.8626 -0.189807 0.0224528 0.981517
-2.84985 -50.8021 85.6673 -0.195902 0.0408077 0.979701
-4.09509 -50.8237 85.3168 -0.311608 -0.00178386 0.950209
-5.09516 -50.8279 84.9836 -0.377076 0.0271028 0.925193
-6.04756 -50.8509 84.5617 -0.405727 0.0245007 0.913666
-7.22927 -50.8744 83.9885 -0.494353 0.0153035 0.869114
-8.3892 -50.9325 83.3069 -0.543944 0.0202705 0.83812
-9.72944 -50.7039 82.3248 -0.60364 0.0178059 0.79704
-10.6399 -49.6676 81.5675 -0.62262 0.0338047 0.781762
-11.2104 -48.7236 81.0304 -0.644481 0.0552013 0.762625
-11.6667 -47.7066 80.5708 -0.644457 0.0622155 0.762075
-11.9753 -46.5409 80.2199 -0.634129 0.0613814 0.770787
-12.1782 -45.5517 79.9746 -0.636956 0.0308493 0.769677
-12.5404 -44.2811 79.623 -0.66787 0.0259875 0.743823
-12.8846 -43.3487 79.2775 -0.667556 0.0369429 0.743639
-13.2107 -42.4769 78.9068 -0.721456 0.0402588 0.691289
-13.5076 -41.3596 78.52 -0.717131 0.0691518 0.693458
-13.6413 -40.137 78.2539 -0.724005 0.0688728 0.68634
-13.6516 -39.0274 78.1378 -0.715635 0.0607502 0.695669
-13.5263 -37.8883 78.1708 -0.705084 0.0531297 0.70712
-13.1781 -36.9741 78.3847 -0.673525 0.0927162 0.733288
-12.319 -35.8706 78.9873 -0.634083 0.107046 0.765243
-11.411 -35.0944 79.6546 -0.584182 0.111213 0.801304
-10.5818 -34.8034 80.1402 -0.535966 0.145852 0.831545
-9.67856 -34.7448 80.7119 -0.535753 0.145816 0.831689
-8.28686 -35.0448 81.6224 -0.494995 0.154173 0.854944
-7.30981 -35.2488 82.229 -0.456775 0.179285 0.870255
-6.42961 -35.4263 82.6772 -0.370845 0.230777 0.899558
-5.51866 -35.5711 83.0879 -0.354701 0.227311 0.906781
-4.55524 -35.461 83.422 -0.352024 0.255494 0.900434
-2.75661 -35.1322 83.7893 -0.124112 0.280437 0.951801
-1.50476 -34.8148 83.8376 -0.04848 0.25149 0.966636
-0.133789 -34.6538 83.8641 -0.0523369 0.237343 0.969925
1.19928 -34.4788 83.8509 0.00860071 0.239988 0.970223
2.37966 -34.3949 83.8085 0.0891723 0.236212 0.964657
3.40618 -34.5045 83.6596 0.17318 0.253677 0.951635
4.38508 -34.7141 83.5181 0.207611 0.235087 0.949485
5.60253 -35.2826 83.3237 0.333013 0.186125 0.924365
6.49276 -35.7903 83.105 0.325462 0.241718 0.91252
7.72738 -36.4157 82.7143 0.43841 0.219495 0.871561
9.00639 -36.9525 82.2001 0.452257 0.214388 0.8657
10.5679 -37.4818 81.4727 0.518885 0.133862 0.84005
11.5932 -37.9014 80.7459 0.603361 0.101794 0.790943
12.3768 -38.4234 80.2018 0.633255 0.0860506 0.768918
13.0372 -39.152 79.7054 0.663612 0.0712374 0.744577
13.9069 -40.3251 79.016 0.690596 0.0500424 0.721453
14.4472 -41.8452 78.6248 0.719601 0.0559206 0.689818
14.5927 -42.9126 78.511 0.761109 0.0306486 0.647885
14.5373 -44.8119 78.6314 0.747028 0.0326722 0.663684
14.2819 -45.9122 78.9988 0.731006 0.0314156 0.681139
13.8339 -46.7286 79.4755 0.720921 0.0117993 0.692913
13.3783 -47.5664 79.9461 0.680669 0.0241997 0.732106
12.9267 -48.415 80.4074 0.688511 0.0204138 0.724932
12.1082 -49.3064 81.1635 0.653029 0.0277702 0.756819
11.3111 -49.9131 81.8552 0.637961 0.020821 0.769786
10.4757 -50.3538 82.5259 0.599066 0.0360874 0.799739
9.41397 -50.7314 83.3095 0.584053 0.0305458 0.811127
8.53306 -50.8642 83.9229 0.540173 0.0391051 0.840193
7.65268 -50.916 84.4406 0.418904 -0.0186032 0.906738
6.58284 -50.8961 84.8559 0.328111 0.0435619 0.94353
4.97164 -50.8812 85.3928 0.310194 0.0380632 0.949897
3.90023 -50.8783 85.6659 0.221154 -0.0144294 0.97513
2.86977 -50.8648 85.8971 0.149166 0.0118614 0.985909
1.86611 -50.8437 85.9677 0.0635835 0.0278568 0.997585
0.273424 -50.8117 86.0592 0.0166981 0.000360357 0.998744
0.686426 -51.5367 86.0556 -0.000687147 0.0239029 0.999255
-1.05367 -51.4695 86.0113 -0.100674 -0.00782143 0.991569
-2.08258 -51.4948 85.831 -0.175519 0.0216368 0.984209
-3.10542 -51.5054 85.6334 -0.240527 0.0331212 0.968865
-4.13328 -51.5122 85.3216 -0.302683 0.0415977 0.952181
-5.21241 -51.5232 84.9513 -0.376547 0.0192639 0.925632
-6.12636 -51.5386 84.5455 -0.406598 0.0258611 0.913241
-7.46629 -51.5614 83.8678 -0.503676 0.0139935 0.863731
-8.44404 -51.6209 83.2813 -0.51895 0.0107227 0.854732
-9.38468 -51.6132 82.6058 -0.595831 0.0175749 0.8029
-10.1611 -51.3478 82.0037 -0.640179 0.0142701 0.76809
-10.8159 -50.5812 81.4458 -0.640679 0.0123207 0.76771
-11.3659 -49.7251 80.9308 -0.680664 0.029097 0.732002
-11.8354 -48.8905 80.4668 -0.680385 0.0229642 0.732494
-12.1841 -47.9819 80.1023 -0.699242 0.0255088 0.714427
-12.4433 -47.0191 79.8134 -0.694912 0.0315258 0.718403
-12.6672 -45.9267 79.5528 -0.692306 0.0238121 0.721195
-12.8961 -44.8961 79.31 -0.689994 0.0138335 0.723683
-13.234 -43.9434 78.9691 -0.70989 0.0314124 0.702813
-13.6831 -42.705 78.4256 -0.729045 0.0285941 0.683868
-14.0102 -41.7765 78.0321 -0.723001 0.0538863 0.68859
-14.1525 -40.5903 77.7679 -0.71431 0.0679882 0.696519
-14.1864 -39.1102 77.61 -0.709544 0.0532412 0.702615
-14.1079 -38.0735 77.6048 -0.704923 0.0476081 0.707619
-13.8788 -37.0855 77.7641 -0.68647 0.0699434 0.723104
-13.3026 -36.0552 78.1605 -0.664119 0.0586585 0.74463
-12.3688 -35.022 78.8613 -0.618266 0.0654741 0.783235
-11.1015 -34.1862 79.6953 -0.539496 0.147006 0.829052
-10.1753 -34.0179 80.2642 -0.536315 0.146261 0.831248
-9.02285 -34.0973 81.01 -0.513545 0.165603 0.84165
-7.86237 -34.3798 81.7328 -0.486612 0.167304 0.857444
-6.68778 -34.649 82.368 -0.372666 0.238432 0.896798
-5.71876 -34.8307 82.8164 -0.371288 0.234766 0.898348
-4.58847 -34.7806 83.231 -0.335162 0.236665 0.911952
-3.49059 -34.5776 83.5341 -0.160518 0.277569 0.946628
-2.34683 -34.3324 83.6262 -0.12094 0.256502 0.958947
-1.10139 -34.0544 83.6605 -0.0656764 0.243205 0.967565
-0.0412658 -33.9203 83.6988 -0.0595786 0.226584 0.972168
1.15447 -33.7582 83.6759 -0.000153392 0.234627 0.972083
2.18264 -33.6797 83.6493 0.145402 0.244589 0.95855
3.28422 -33.7757 83.4967 0.157205 0.219155 0.962755
4.42235 -33.9865 83.3324 0.205012 0.223329 0.952936
5.39969 -34.3391 83.2003 0.266006 0.210124 0.938876
6.26717 -34.8975 83.0042 0.335511 0.18581 0.92353
7.32571 -35.4844 82.7117 0.416386 0.167422 0.893451
8.17311 -35.9128 82.3797 0.42358 0.153512 0.892755
9.03728 -36.2877 82.0331 0.433375 0.155659 0.887668
10.1716 -36.6391 81.5327 0.446591 0.151175 0.88186
11.0741 -36.934 81.0007 0.582615 0.153391 0.798142
11.9909 -37.3021 80.3635 0.616239 0.106949 0.78011
12.7174 -37.8463 79.8485 0.630125 0.109074 0.768786
13.414 -38.5695 79.3256 0.65818 0.0656603 0.749955
14.1181 -39.5497 78.7319 0.707985 0.0729719 0.702446
14.6229 -40.5372 78.3255 0.71706 0.0741487 0.692915
14.8805 -41.4776 78.1026 0.757352 0.035484 0.652041
15.0481 -42.7443 77.968 0.76151 0.0283534 0.647532
15.0925 -44.443 77.9884 0.759471 0.028525 0.649912
14.961 -45.465 78.2119 0.741384 0.0511826 0.669126
14.7383 -46.3938 78.5298 0.731682 0.0302406 0.680489
14.2772 -47.16 79.0246 0.711999 0.0374256 0.701182
13.8348 -47.947 79.5154 0.708059 0.0288945 0.705491
13.4416 -48.804 79.9292 0.687241 0.0187333 0.726187
12.9079 -49.4961 80.4526 0.68567 0.0161385 0.727723
12.081 -50.2239 81.218 0.672426 0.0203436 0.739783
11.2643 -50.7932 81.9146 0.633957 0.0155937 0.773201
9.95384 -51.3744 82.937 0.595446 0.0111887 0.803305
8.97516 -51.5303 83.6532 0.575145 0.0310272 0.817044
7.75584 -51.6134 84.3657 0.443579 0.00630733 0.895418
6.66652 -51.5721 84.8555 0.359708 0.0297504 0.931459
5.70986 -51.5581 85.1754 0.315534 0.0402935 0.948058
4.68598 -51.5551 85.5029 0.257483 0.0362208 0.964875
3.63638 -51.5583 85.7412 0.216737 0.0459836 0.975146
2.61724 -51.5505 85.9423 0.113086 0.0223175 0.991962
0.876669 -51.5361 86.0502 0.0439076 0.0278707 0.998438
0.50434 -52.2708 86.0717 0.0271713 0.0144956 0.999525
1.51328 -52.3146 86.0442 0.0445388 0.0301572 0.998283
2.5774 -52.3406 85.952 0.161151 0.00303133 0.986925
3.65823 -52.3649 85.7753 0.189081 0.0268944 0.980892
4.70397 -52.3648 85.5157 0.291198 0.0208833 0.956435
5.72549 -52.3612 85.2047 0.303761 0.0314804 0.952076
6.84392 -52.3977 84.785 0.408279 0.000975919 0.912852
7.97394 -52.3586 84.2847 0.406707 -0.0045825 0.913531
9.03588 -52.3923 83.6324 0.595544 0.0225817 0.803005
9.90833 -52.1557 82.9826 0.58843 0.0171813 0.808339
10.7073 -51.8735 82.3854 0.595446 0.0111887 0.803305
11.4956 -51.5882 81.7422 0.632825 0.0170783 0.774106
12.5429 -50.6825 80.8158 0.678945 0.0233814 0.733738
13.4427 -49.9598 79.9589 0.696865 0.0165279 0.716743
14.2174 -48.4613 79.1502 0.704718 0.0188651 0.709236
14.7751 -47.5141 78.538 0.711999 0.0374256 0.701182
15.3025 -46.9623 77.881 0.779759 0.015978 0.625793
15.3743 -45.8812 77.7647 0.756606 0.0483039 0.652084
15.5914 -44.3825 77.4092 0.755058 0.0409932 0.654375
15.5684 -42.7979 77.3598 0.760428 0.0313502 0.648657
15.3479 -41.1198 77.539 0.763728 0.0302461 0.64483
14.9774 -39.9999 77.8889 0.726832 0.0762016 0.682575
14.3245 -38.8521 78.4504 0.716191 0.076807 0.693557
13.7094 -37.9991 78.9761 0.70432 0.0860048 0.704614
12.7583 -36.9228 79.6786 0.637328 0.122468 0.760798
11.9268 -36.3286 80.2761 0.602262 0.120125 0.78807
11.0177 -36.2134 80.9028 0.583508 0.15225 0.797706
9.72107 -35.8189 81.6134 0.449436 0.159031 0.879033
8.77596 -35.4225 82.0088 0.430602 0.149964 0.889996
7.79421 -34.8489 82.3719 0.405927 0.176684 0.89666
6.25448 -34.0287 82.834 0.328675 0.194473 0.924137
5.48084 -33.3864 82.964 0.263842 0.210602 0.939295
4.35712 -33.2563 83.1743 0.202058 0.219495 0.954447
3.11997 -33.0635 83.3503 0.141551 0.226364 0.963692
1.96948 -33.0271 83.5055 0.0665701 0.239207 0.966081
0.929937 -32.9318 83.4803 -0.00298134 0.225423 0.974256
-0.726504 -33.2966 83.5114 -0.0597507 0.226338 0.972214
-1.79075 -33.3186 83.4331 -0.107789 0.233615 0.965833
-2.8806 -33.6787 83.3805 -0.124692 0.264826 0.9562
-3.86518 -33.993 83.2774 -0.257712 0.231633 0.934795
-5.23077 -34.2002 82.8443 -0.330675 0.246007 0.911057
-6.10465 -33.9582 82.4243 -0.373619 0.24214 0.89542
-7.56835 -33.5285 81.6633 -0.412617 0.247009 0.876745
-9.03746 -33.1222 80.786 -0.502435 0.193308 0.842722
-10.6339 -33.3314 79.8631 -0.523536 0.141517 0.839914
-11.4992 -33.5491 79.3384 -0.545634 0.124818 0.828653
-12.4044 -34.1847 78.7645 -0.618232 0.0756068 0.782269
-13.3082 -34.9314 78.1131 -0.639996 0.0478854 0.766185
-13.8911 -35.6189 77.6241 -0.661118 0.0289298 0.74972
-14.4529 -37.244 77.2168 -0.696857 0.0549999 0.715049
-14.7034 -38.2298 77.0195 -0.722531 0.0450918 0.689845
-14.7142 -39.4176 77.0914 -0.714721 0.0497542 0.697638
-14.6526 -40.6806 77.2639 -0.714312 0.0679881 0.696517
-14.6753 -41.9395 77.3396 -0.727341 0.0387655 0.685097
-14.2031 -42.7567 77.8738 -0.728794 0.0285131 0.684139
-13.9172 -43.8332 78.2296 -0.730133 0.0478121 0.68163
-13.5767 -44.7561 78.6591 -0.709768 0.0308722 0.702937
-13.2428 -46.2065 79.012 -0.690172 0.0210912 0.723338
-12.8637 -47.5791 79.4241 -0.699518 0.023418 0.714231
-12.5993 -48.6214 79.7197 -0.700664 0.0279649 0.712942
-12.1999 -49.6156 80.1492 -0.691166 0.024434 0.722188
-11.5693 -50.5765 80.7786 -0.683751 0.0315009 0.729035
-11.074 -51.4664 81.2422 -0.643719 0.0123803 0.765156
-10.3296 -52.1777 81.8804 -0.641855 0.0153337 0.766673
-9.40337 -52.5293 82.6319 -0.606578 0.0359743 0.794117
-8.07651 -52.3531 83.5133 -0.52133 0.0100873 0.853296
-7.21743 -52.3022 84.0252 -0.478117 0.00174321 0.877328
-6.30138 -52.3027 84.4798 -0.444902 -0.0146467 0.895459
-5.11106 -52.3602 84.9996 -0.347759 0.0123423 0.937502
-3.48183 -52.3369 85.5642 -0.251824 0.0233657 0.965889
-2.43415 -52.358 85.7771 -0.200152 0.00567 0.979744
-1.36159 -52.3641 85.9751 -0.124022 0.00772538 0.990991
-0.320423 -52.2777 86.0498 -0.0390097 0.0338492 0.998624
0.221271 -52.2591 86.0655 -0.0301531 0.0332598 0.998991
0.454699 -52.2708 86.073 -0.00205072 0.0238216 0.999265
