-7.07591 42.9003 81.4362 -0.362289 -0.047212 0.930869
-6.10343 42.8253 81.7906 -0.266915 -0.0902185 0.959268
-5.28008 43.4228 82.0372 -0.238427 -0.0577849 0.969436
-4.37881 43.1201 82.2394 -0.197876 -0.0442897 0.978302
-3.35562 43.4535 82.415 -0.142875 -0.0484189 0.988332
-2.06237 43.5904 82.5587 -0.0892789 -0.0447172 0.995002
-2.07569 43.9382 82.5824 -0.0973601 -0.0925798 0.990934
-3.20725 44.2416 82.4832 -0.150032 -0.0763273 0.985582
-4.50468 43.9325 82.2561 -0.189922 -0.0544663 0.979148
-5.5379 43.9054 82.0012 -0.243263 -0.0552335 0.968387
-6.42671 43.2889 81.7092 -0.363792 -0.0504736 0.930108
-7.0634 42.9289 81.4425 -0.362295 -0.0480335 0.930825
-7.41421 43.5307 81.3373 -0.36303 -0.0476251 0.930559
-8.05868 42.5925 81.0123 -0.418597 -0.0653256 0.905718
-7.49133 41.8462 81.2216 -0.397082 -0.0569918 0.915157
-6.29883 42.033 81.6517 -0.285653 -0.0975884 0.953351
-5.03419 42.3535 82.0237 -0.245813 -0.0855039 0.965539
-3.37847 42.6678 82.3636 -0.126968 -0.0610201 0.990028
-2.24642 42.9125 82.5116 -0.0892938 -0.0457515 0.994954
-0.736835 43.5208 82.6751 -0.0936985 -0.0689822 0.992914
0.36307 43.5068 82.7274 -0.0406451 -0.0895113 0.995131
1.61353 43.6744 82.7275 0.104445 -0.0577286 0.992853
2.6455 43.7259 82.6237 0.112978 -0.0650911 0.991369
3.7203 43.9329 82.4316 0.218129 -0.0519721 0.974464
2.93635 44.5927 82.6426 0.159094 -0.0539504 0.984628
1.95773 44.7351 82.7587 0.0929586 -0.0477827 0.994328
0.486643 44.7634 82.8497 0.0344187 -0.0376332 0.998699
-0.779993 45.0336 82.8016 -0.0848369 -0.0836128 0.992876
-1.78938 45.0507 82.7142 -0.0924725 -0.088526 0.991754
-3.40206 44.9823 82.5077 -0.137045 -0.0697235 0.988107
-4.43424 44.8633 82.3283 -0.203116 -0.0717601 0.975744
-5.43802 44.6752 82.0702 -0.241119 -0.0550092 0.968933
-6.97474 43.9074 81.5287 -0.365907 -0.0525024 0.929169
-7.06686 43.8402 81.4885 -0.36507 -0.0495933 0.929652
-7.72786 44.2617 81.2514 -0.36507 -0.0495933 0.929652
-6.96301 44.8188 81.5848 -0.364589 -0.0514944 0.929743
-5.9062 45.2756 81.9888 -0.240869 -0.056668 0.968901
-4.26593 45.6586 82.4152 -0.237982 -0.0570137 0.969594
-3.15619 45.7431 82.5973 -0.13994 -0.0834304 0.986638
-1.94496 45.7592 82.7602 -0.098989 -0.0757541 0.992116
-0.214244 45.6441 82.8987 -0.0511281 -0.0581263 0.996241
0.955252 45.5489 82.8658 0.033886 -0.0567453 0.997813
2.06709 45.4886 82.7903 0.0899812 -0.0561504 0.994116
3.07205 45.4889 82.6618 0.206376 -0.0478898 0.977298
4.58261 45.6794 82.338 0.223525 -0.0497936 0.97342
5.61165 45.6326 82.0024 0.313985 -0.0323338 0.948877
6.63147 45.2584 81.6522 0.321149 -0.0364283 0.946278
7.85264 44.358 81.1436 0.366877 -0.0297021 0.929795
8.21984 43.3616 80.9083 0.417087 -0.0699658 0.906169
7.28733 43.248 81.3294 0.38346 -0.0615596 0.920639
6.24853 43.377 81.6981 0.326331 -0.0540839 0.943707
5.24981 43.3771 82.0433 0.292754 -0.0660632 0.953199
4.25044 43.2778 82.2821 0.224166 -0.043043 0.9736
3.26599 43.1096 82.5004 0.172392 -0.056867 0.982021
1.97439 42.9437 82.6488 0.112865 -0.0649019 0.991395
0.649313 42.8025 82.6758 -0.0284379 -0.0593254 0.997537
-0.517193 42.6826 82.6478 -0.0507104 -0.0464381 0.997131
-2.06681 42.2102 82.4949 -0.0861218 -0.0501388 0.99501
-3.13285 41.9552 82.3519 -0.126581 -0.0583886 0.990236
-4.56547 41.6683 82.0792 -0.236475 -0.0925618 0.967218
-5.63609 41.4455 81.7897 -0.265969 -0.0921085 0.959326
-6.71524 41.1742 81.4342 -0.293792 -0.0839009 0.951991
-8.04992 40.9182 80.891 -0.431353 -0.0586148 0.900273
-8.94003 41.0869 80.4684 -0.454057 -0.0593755 0.888894
-8.99481 42.1804 80.5271 -0.437102 -0.0801139 0.895835
-8.49167 43.3753 80.8565 -0.41822 -0.0454818 0.907207
-7.75452 44.238 81.2398 -0.390858 -0.0463281 0.918804
-8.39196 44.6344 80.9726 -0.414492 -0.0552028 0.908376
-9.26518 43.5166 80.5083 -0.444932 -0.0509281 0.893486
-9.65575 42.5839 80.2206 -0.469263 -0.0830994 0.87914
-9.95187 40.9867 79.9288 -0.464674 -0.0652443 0.883075
-9.44614 40.0615 80.1264 -0.463399 -0.0541012 0.884422
-8.535 40.0346 80.6038 -0.448572 -0.0587327 0.891608
-7.06653 40.332 81.2639 -0.384977 -0.0975334 0.917758
-5.65985 40.6771 81.7112 -0.273158 -0.0788604 0.958665
-4.58615 40.9116 82.0023 -0.237264 -0.0920721 0.967072
-3.03987 41.2216 82.3205 -0.123137 -0.062009 0.990439
-2.06702 41.4461 82.4527 -0.101397 -0.0603167 0.992835
-1.08333 41.6997 82.5489 -0.0816752 -0.054872 0.995146
0.381551 41.9982 82.6406 -0.0217849 -0.0390216 0.998999
1.50712 42.1472 82.6439 0.0728426 -0.0915968 0.991952
2.58276 42.2754 82.5231 0.12336 -0.0743133 0.989576
4.06146 42.4769 82.2899 0.240857 -0.0609148 0.96832
5.44263 42.6181 81.9299 0.259787 -0.078469 0.962472
6.48394 42.6206 81.5734 0.326331 -0.0540839 0.943707
7.52355 42.5347 81.1833 0.38346 -0.0615596 0.920639
8.74737 42.3042 80.6112 0.415223 -0.0442224 0.908644
10.2005 41.6774 79.8281 0.452453 -0.0532807 0.890148
10.9557 41.162 79.3782 0.516368 -0.00962016 0.856313
11.9958 40.339 78.7228 0.537395 -0.00411039 0.843155
12.8381 40.9031 78.1972 0.550191 -0.0122411 0.834803
12.3351 41.8128 78.5432 0.549584 -0.0143788 0.835184
11.5194 42.5703 79.0655 0.518553 -0.0260679 0.854648
10.2479 43.3523 79.8435 0.502897 -0.0181793 0.864155
9.51821 43.9253 80.3043 0.492918 -0.0458466 0.868649
8.68444 44.5577 80.7858 0.447277 -0.0540834 0.892037
7.77693 45.3643 81.2073 0.366423 -0.0366853 0.929725
6.45354 46.1712 81.7422 0.33256 -0.0275316 0.942463
5.45673 46.4162 82.0803 0.313985 -0.0323338 0.948877
3.98409 46.3733 82.5002 0.225782 -0.0267548 0.973806
2.81465 46.2756 82.753 0.157174 -0.0526241 0.984964
1.32001 46.2871 82.8901 0.077865 -0.0467731 0.995731
0.312024 46.3515 82.9333 0.0344936 -0.056418 0.997811
-0.782962 46.4369 82.9155 -0.0525636 -0.0566266 0.996247
-2.59652 46.5018 82.7401 -0.113653 -0.0697622 0.991063
-3.65847 46.4757 82.5881 -0.175026 -0.063165 0.981661
-4.7659 46.3484 82.3341 -0.238866 -0.0580982 0.969312
-5.88897 46.0695 82.0397 -0.264701 -0.0449353 0.962855
-6.77755 45.7382 81.7122 -0.359702 -0.0580184 0.931261
-7.71835 45.1966 81.309 -0.366819 -0.055601 0.928626
-7.8175 45.1242 81.2658 -0.390545 -0.0550832 0.918544
-8.39932 45.5684 81.0178 -0.421881 -0.0429837 0.90563
-9.26103 44.7798 80.5815 -0.446636 -0.0494179 0.89277
-9.90868 43.8523 80.1795 -0.475243 -0.0493276 0.87847
-10.2867 42.9595 79.9103 -0.482712 -0.0610746 0.873647
-10.6042 41.4605 79.6204 -0.476743 -0.0705231 0.876081
-10.7056 40.284 79.4623 -0.486509 -0.0652687 0.871183
-10.1975 39.3584 79.6883 -0.488598 -0.0530681 0.870894
-9.05908 39.2349 80.278 -0.45844 -0.0529944 0.887127
-7.795 39.3992 80.8508 -0.389605 -0.127288 0.912143
-6.80639 39.6366 81.296 -0.331901 -0.0853876 0.937821
-5.34028 39.9907 81.7378 -0.264632 -0.0858177 0.960523
-4.36889 40.1993 81.9958 -0.234779 -0.0774638 0.968957
-3.00056 40.4716 82.2758 -0.12045 -0.0699703 0.990239
-1.88217 40.7218 82.4269 -0.100724 -0.0619319 0.99281
-0.722491 41.0119 82.5397 -0.0777605 -0.0628274 0.99496
0.706671 41.2732 82.5749 0.0216743 -0.102857 0.994453
1.73461 41.4212 82.5564 0.120737 -0.0849574 0.98904
3.18714 41.5943 82.3927 0.135045 -0.0969073 0.98589
4.63083 41.7924 82.0817 0.25869 -0.076788 0.962903
5.6911 41.8845 81.8025 0.292865 -0.0681931 0.953055
6.63486 41.8716 81.461 0.346001 -0.0767043 0.935089
8.11573 41.6571 80.869 0.397024 -0.0624255 0.915278
9.25044 41.2529 80.2869 0.450165 -0.0472186 0.891694
10.2355 40.7371 79.7553 0.475001 -0.0523353 0.878427
11.1112 40.1041 79.2445 0.475096 -0.0490146 0.878563
11.9414 39.5561 78.7689 0.504297 -0.0168812 0.862104
13.3076 39.457 77.836 0.579698 -0.0283521 0.814338
13.5057 41.1356 77.7453 0.573095 -0.014071 0.819192
13.0915 42.076 78.0342 0.559841 -0.0279852 0.827825
12.2288 42.9194 78.6431 0.521319 -0.0247898 0.853001
11.1265 43.6745 79.3373 0.520523 -0.0340336 0.853118
10.1034 44.385 79.9877 0.507983 -0.0542622 0.859656
9.35459 44.9851 80.4407 0.479332 -0.0393953 0.876748
8.29896 45.8674 81.0214 0.404545 -0.0258166 0.913157
7.27945 46.5902 81.4431 0.352517 -0.0234384 0.93551
6.2836 47.0504 81.8289 0.332723 -0.0287858 0.942363
5.33229 47.1881 82.1355 0.299018 -0.0164784 0.954105
3.78287 47.1294 82.5655 0.223 -0.0264626 0.974457
2.69034 47.0549 82.8075 0.146875 -0.0421777 0.985631
1.59477 47.0294 82.8905 0.0810179 -0.0435734 0.995683
0.585432 47.0546 82.9637 0.00780221 -0.0456123 0.998511
-1.29888 47.2118 82.9323 -0.0525636 -0.0566266 0.996247
-3.04325 47.2426 82.7387 -0.128564 -0.0746189 0.988795
-4.34196 47.1771 82.4704 -0.210643 -0.0415253 0.976681
-5.45945 46.994 82.2008 -0.263741 -0.0452751 0.963136
-6.53557 46.6417 81.8632 -0.298191 -0.0299264 0.953987
-7.64297 46.1294 81.3814 -0.387588 -0.0522433 0.920213
-7.89006 45.9712 81.2729 -0.401299 -0.0396393 0.91483
-8.27675 46.598 81.1112 -0.428645 -0.0215524 0.903214
-7.08927 47.241 81.6849 -0.39279 -0.0414263 0.917906
-6.11513 47.607 82.0249 -0.298191 -0.0299264 0.953987
-5.03887 47.8589 82.3539 -0.234522 -0.0492514 0.970491
-3.90282 47.967 82.6085 -0.2138 -0.063756 0.974795
-2.87222 47.9853 82.8162 -0.148273 -0.063059 0.986334
-1.7232 47.9665 82.9449 -0.0716797 -0.056599 0.994964
-0.189431 47.8876 82.9828 -0.0188727 -0.0422141 0.99893
1.26466 47.7991 82.9585 0.0709778 -0.0479493 0.996283
2.56115 47.8225 82.8591 0.148783 -0.0396452 0.985464
4.23833 47.9182 82.4845 0.221501 -0.0274934 0.974772
5.21664 47.9531 82.1959 0.287188 -0.0550787 0.956289
6.57679 47.7831 81.7468 0.348659 -0.0426162 0.93628
8.02327 46.9916 81.1712 0.352288 -0.032986 0.935256
9.00126 46.229 80.6836 0.457579 -0.0220916 0.888698
10.0776 45.3402 80.0603 0.493502 -0.0330487 0.868942
11.0969 44.5696 79.4006 0.521047 -0.0432751 0.852431
11.9558 43.9896 78.8459 0.521275 -0.0434075 0.852284
12.8337 43.3739 78.2882 0.543109 -0.0409973 0.838078
13.5077 42.6984 77.7832 0.56462 -0.0441191 0.824169
14.0304 41.7745 77.3898 0.573205 -0.0159223 0.819106
14.3303 40.6841 77.1393 0.585967 -0.0274954 0.809852
14.1461 39.217 77.2221 0.596124 -0.0347171 0.802059
13.4503 38.6005 77.7044 0.58255 -0.0277878 0.812313
12.3398 38.5776 78.4697 0.555334 -0.0515819 0.829909
11.4784 38.9909 78.9883 0.470676 -0.0473992 0.881027
10.5758 39.6316 79.5074 0.474418 -0.049954 0.878873
9.74935 40.1775 79.9859 0.461771 -0.042628 0.885805
8.12003 40.8898 80.8169 0.398813 -0.0594247 0.914563
6.78915 41.13 81.3545 0.357974 -0.0418312 0.932791
5.1506 41.0913 81.8852 0.254949 -0.0705231 0.964341
3.89437 40.936 82.2113 0.20439 -0.0940258 0.97261
2.85951 40.7948 82.352 0.146169 -0.111684 0.982932
1.75891 40.6649 82.4869 0.0722635 -0.0937869 0.991781
0.768777 40.5192 82.5108 0.0468851 -0.0615487 0.997002
-0.912816 40.1901 82.4735 -0.0742789 -0.0614008 0.995334
-1.99369 39.9147 82.3573 -0.118018 -0.0760204 0.990091
-3.29676 39.6519 82.1777 -0.123092 -0.0786838 0.989259
-4.60497 39.3891 81.8736 -0.222429 -0.0886651 0.970756
-5.63335 39.1636 81.5833 -0.263851 -0.0845881 0.960846
-6.6004 38.9288 81.297 -0.329572 -0.100204 0.936056
-8.02819 38.5884 80.6377 -0.388388 -0.12759 0.91262
-9.61312 38.4646 79.9334 -0.428273 -0.0996503 0.897147
-10.7333 38.5664 79.3392 -0.480946 -0.082841 0.87229
-11.3918 39.5404 79.0286 -0.48959 -0.0551875 0.870202
-11.3155 41.1897 79.1968 -0.491508 -0.0750845 0.867623
-11.1192 42.4172 79.3957 -0.529648 -0.0595462 0.846117
-10.8915 43.381 79.602 -0.527425 -0.0563962 0.847728
-10.3209 44.5687 79.9965 -0.471112 -0.0580074 0.880108
-9.63138 45.4708 80.4326 -0.450039 -0.0490843 0.891202
-8.7307 46.2322 80.8856 -0.430952 -0.0229314 0.902083
-9.2979 46.7125 80.6259 -0.428615 -0.0346995 0.902734
-10.1178 45.999 80.2145 -0.450378 -0.0454717 0.891156
-11.0956 44.6894 79.5331 -0.557506 -0.0242649 0.829382
-11.6925 42.9907 79.0772 -0.527672 -0.0567735 0.847549
-11.8455 41.9978 78.9077 -0.532929 -0.0545337 0.844364
-12.0004 40.8514 78.7432 -0.547832 -0.0643518 0.833845
-12.0555 39.8528 78.6172 -0.566807 -0.0642681 0.82134
-11.9575 38.8076 78.5996 -0.565882 -0.0722533 0.821308
-11.5824 37.9101 78.786 -0.546507 -0.0749503 0.833416
-10.4119 37.7606 79.4141 -0.455563 -0.0705213 0.887406
-9.52566 37.7178 79.8798 -0.43259 -0.116065 0.893071
-8.31876 37.7884 80.4056 -0.388958 -0.119109 0.913523
-7.3412 37.9793 80.8522 -0.396641 -0.119491 0.910163
-6.40017 38.2176 81.2911 -0.329059 -0.100757 0.936134
-5.40746 38.4586 81.5843 -0.259934 -0.0866281 0.961719
-4.1321 38.7146 81.9119 -0.204672 -0.0757615 0.975892
-3.09907 38.9009 82.1392 -0.162123 -0.0949462 0.981359
-1.64024 39.2283 82.3441 -0.115425 -0.0784888 0.99021
-0.33055 39.561 82.455 -0.0393835 -0.0773201 0.996096
0.907113 39.7944 82.4522 0.0553851 -0.090355 0.994368
1.99645 39.9369 82.3967 0.112727 -0.0833326 0.989302
3.08979 40.0716 82.2407 0.153412 -0.0672822 0.985869
4.1088 40.2136 82.0964 0.20439 -0.0940258 0.97261
5.07175 40.3396 81.8555 0.248757 -0.0644279 0.966421
6.95146 40.3954 81.2592 0.355736 -0.043017 0.933596
8.36757 40.0293 80.6593 0.396246 -0.0514664 0.915817
9.42743 39.5191 80.1227 0.459925 -0.0375461 0.886952
10.4618 38.7786 79.5219 0.47791 -0.0418915 0.87738
11.2959 38.2012 79.0408 0.469684 -0.0495768 0.881441
12.5483 37.7174 78.2638 0.560645 -0.0526424 0.826353
13.5469 37.7884 77.5948 0.580656 -0.0423897 0.812578
14.8013 38.8736 76.7085 0.60153 -0.0455557 0.797546
15.0039 40.1711 76.5796 0.662153 -0.0197234 0.748938
14.8676 41.2769 76.7074 0.654805 -0.00564668 0.755776
14.4395 42.459 77.0721 0.647168 0.022752 0.761975
13.8664 43.359 77.5224 0.646827 0.0210634 0.762308
13.2155 44.0016 78.0447 0.637783 -0.00305894 0.769872
12.3926 44.5674 78.6083 0.521127 -0.0434758 0.852371
11.0874 45.4685 79.4522 0.521102 -0.0363744 0.852694
10.2137 46.1551 80.0022 0.506164 -0.0238688 0.862107
9.40035 46.8282 80.4796 0.48604 -0.0337717 0.873056
8.5416 47.5192 80.9427 0.435813 -0.0244147 0.899697
7.13683 48.4216 81.5671 0.350125 -0.0430201 0.935713
6.2251 48.6695 81.9195 0.347532 -0.0430356 0.936677
5.1047 48.7109 82.2732 0.287188 -0.0550787 0.956289
3.67551 48.6409 82.6301 0.221976 -0.0227624 0.974786
2.4458 48.5823 82.9071 0.148783 -0.0396452 0.985464
0.696585 48.5557 83.0267 0.0652117 -0.0410876 0.997025
-0.311847 48.6222 83.0126 -0.0215748 -0.0451966 0.998743
-1.31529 48.6967 82.9889 -0.0336824 -0.0400942 0.998624
-2.46484 48.7217 82.9164 -0.130469 -0.0539362 0.989675
-3.45932 48.7298 82.7465 -0.181288 -0.0499893 0.982156
-4.57241 48.6834 82.5083 -0.23548 -0.0473304 0.970354
-5.602 48.5332 82.2288 -0.272158 -0.0439772 0.961084
-6.78028 48.1865 81.8462 -0.350397 -0.0384105 0.934285
-7.68521 47.7908 81.429 -0.421325 -0.0426219 0.905908
-8.58181 47.2716 80.989 -0.420233 -0.0413614 0.906473
-8.81865 47.1131 80.872 -0.422805 -0.0439708 0.905146
-9.31535 47.6484 80.6659 -0.4202 -0.042229 0.906448
-8.38154 48.2601 81.1275 -0.420435 -0.0428052 0.906312
-7.46915 48.725 81.5583 -0.399132 -0.0176032 0.916724
-6.49585 49.0942 81.9866 -0.344377 -0.0343046 0.936392
-5.24736 49.373 82.3517 -0.257539 -0.0318468 0.965743
-4.07015 49.4642 82.6683 -0.23548 -0.0473304 0.970354
-2.98621 49.4752 82.8656 -0.147339 -0.0255565 0.988755
-1.8061 49.4613 82.9985 -0.0389342 -0.0222112 0.998941
-0.461541 49.3626 83.0393 -0.0325278 -0.0302498 0.999013
0.569935 49.3289 83.0655 0.0201635 -0.0424513 0.997947
1.63169 49.323 82.9923 0.08184 -0.0176665 0.996489
3.13118 49.3654 82.7708 0.21258 -0.0126455 0.976969
4.50372 49.4373 82.4456 0.252767 -0.0170195 0.967377
5.79273 49.4728 82.1095 0.270009 -0.0356396 0.961847
6.74431 49.3853 81.7582 0.351853 -0.0293058 0.935591
7.6589 49.0443 81.4003 0.378847 -0.021823 0.924817
8.66685 48.3436 80.9023 0.433233 -0.0216784 0.901021
9.5349 47.6656 80.4547 0.477431 -0.0340179 0.877208
10.2807 47.0423 79.9877 0.508303 -0.028581 0.86069
11.0973 46.3589 79.4771 0.519664 -0.0296217 0.853857
11.9506 45.7278 78.9267 0.571223 0.00898128 0.820704
13.1925 44.8964 78.0622 0.576768 0.0127753 0.816808
13.8738 44.3997 77.503 0.644681 -0.0208479 0.764164
14.727 43.3314 76.8024 0.646582 0.0212043 0.762505
15.1283 42.4005 76.4809 0.652073 0.0198527 0.757896
15.5245 40.9753 76.135 0.666227 -0.0118413 0.745495
15.6192 39.7081 76.0039 0.671039 -0.032775 0.740696
15.4283 38.6706 76.1499 0.673311 -0.0163437 0.739179
14.9464 37.8247 76.536 0.602598 -0.0427805 0.796878
14.1515 37.2041 77.1097 0.602533 -0.0387574 0.797152
12.852 36.8807 78.012 0.558485 -0.0467708 0.828195
11.859 37.073 78.6712 0.500609 -0.0865818 0.861073
10.5088 37.8498 79.4587 0.482993 -0.0370701 0.874839
9.77981 38.4305 79.8785 0.475551 -0.0360815 0.878948
8.97337 38.9555 80.3311 0.405205 -0.0523491 0.911368
7.81604 39.4479 80.8289 0.372659 -0.076929 0.924755
6.14913 39.6561 81.5303 0.367543 -0.0592235 0.927892
4.83566 39.5596 81.8597 0.246265 -0.0748717 0.966306
3.50764 39.3653 82.1273 0.169646 -0.0807122 0.981971
2.365 39.2269 82.2945 0.115392 -0.0884027 0.988549
1.33041 39.1291 82.365 0.0771343 -0.10422 0.991559
0.336215 38.9646 82.4083 0.0294852 -0.109763 0.993027
-0.933193 38.6194 82.3627 -0.0421322 -0.0963376 0.993311
-2.17706 38.3079 82.202 -0.126001 -0.107223 0.986218
-3.55511 38.0841 81.9799 -0.167057 -0.0996964 0.980298
-4.92523 37.807 81.6514 -0.254223 -0.0924586 0.962712
-5.98921 37.5565 81.3445 -0.257704 -0.0993908 0.961056
-6.98521 37.2807 80.9152 -0.395617 -0.119956 0.910548
-8.4087 37.01 80.2663 -0.388591 -0.118665 0.913737
-9.39073 36.9792 79.8514 -0.402352 -0.106322 0.909001
-10.7359 37.074 79.1932 -0.456967 -0.0757881 0.886232
-11.8473 37.1692 78.5415 -0.520268 -0.0903765 0.849203
-12.7291 37.414 77.9419 -0.578577 -0.0581208 0.813554
-12.6995 38.3919 78.0438 -0.572516 -0.0732931 0.816609
-12.675 39.8988 78.1901 -0.570058 -0.0718175 0.818429
-12.5687 41.5201 78.4211 -0.549599 -0.0660023 0.832442
-12.4165 42.5624 78.5899 -0.53177 -0.0625146 0.844578
-12.2779 43.5583 78.7507 -0.5297 -0.0595394 0.846085
-11.7739 44.9107 79.0951 -0.542975 -0.00401822 0.839739
-11.1321 45.8983 79.5724 -0.570105 -0.0407245 0.820554
-10.3518 46.7598 80.1324 -0.487133 -0.027232 0.869825
-9.32525 47.6414 80.661 -0.424893 -0.0467123 0.904038
-9.32279 47.6434 80.6622 -0.422805 -0.0439708 0.905146
-9.81261 48.1917 80.4613 -0.422235 -0.0454353 0.905341
-8.37956 49.1078 81.166 -0.42363 -0.030952 0.905306
-7.5434 49.5183 81.5462 -0.392655 -0.0341694 0.91905
-6.528 49.8953 81.9912 -0.385422 -0.025276 0.922342
-5.34481 50.1446 82.3597 -0.259189 -0.0475388 0.964656
-3.55612 50.2021 82.7946 -0.194421 -0.0313218 0.980302
-2.38082 50.2053 82.9747 -0.147339 -0.0255565 0.988755
-1.30124 50.2011 83.0374 -0.0423305 -0.0295774 0.998617
-0.0282557 50.1095 83.0761 -0.0280836 -0.0229597 0.999304
1.06705 50.0855 83.0499 0.0745195 -0.0163597 0.997083
2.27101 50.0918 82.9519 0.144277 -0.00728233 0.987677
3.8534 50.1486 82.6225 0.202488 -0.00718389 0.979248
5.28524 50.2207 82.2538 0.253405 -0.0142248 0.967256
6.46438 50.2109 81.889 0.332859 -0.0136059 0.942578
7.41426 50.0345 81.5238 0.354809 -0.0287176 0.934498
8.34765 49.4938 81.0926 0.42983 -0.0355892 0.902205
9.38131 48.7026 80.5674 0.432292 -0.0279489 0.901278
10.158 48.0625 80.1003 0.516192 -0.0261073 0.856013
10.9249 47.4171 79.6157 0.547133 -0.0299378 0.835926
12.0153 46.5461 78.8702 0.565108 0.011463 0.824937
12.8824 45.9486 78.2662 0.577382 0.00553366 0.816456
14.1729 45.0326 77.2683 0.645958 -0.0216188 0.763066
14.8794 44.2309 76.646 0.644878 0.00252913 0.763939
15.4692 43.2646 76.1651 0.652128 0.0186831 0.757878
15.8924 42.0332 75.8212 0.668133 -0.010149 0.743726
16.121 40.9401 75.586 0.678663 -0.0160545 0.734264
16.2137 39.3281 75.4471 0.679153 -0.0288416 0.733343
15.8926 38.016 75.7041 0.681657 -0.0220648 0.731335
15.1658 36.9915 76.3498 0.621985 -0.0167155 0.781998
14.4171 36.4635 76.89 0.591474 -0.0179191 0.806124
13.245 36.1278 77.6792 0.539826 -0.0780043 0.838107
12.1322 36.1331 78.3981 0.523236 -0.100636 0.846168
10.7685 36.779 79.2522 0.483623 -0.0773938 0.871848
9.82037 37.4705 79.8186 0.434254 -0.065004 0.89672
8.75848 38.267 80.3571 0.378421 -0.0871233 0.921373
7.76809 38.7092 80.7909 0.386674 -0.071429 0.919408
6.57659 38.9054 81.303 0.387249 -0.0613494 0.919927
5.48875 38.8869 81.6402 0.252314 -0.0809043 0.964257
4.51868 38.7768 81.8785 0.21605 -0.0873207 0.971971
2.87906 38.5234 82.1638 0.167999 -0.0834472 0.982048
1.8219 38.4564 82.256 0.0778938 -0.10452 0.991467
0.801923 38.3153 82.3204 0.0774068 -0.120105 0.989611
-0.289047 38.0254 82.2936 -0.00308448 -0.107355 0.994216
-1.31768 37.7105 82.2455 -0.0783932 -0.122192 0.988344
-2.39765 37.4992 82.0821 -0.14245 -0.111156 0.983538
-3.99744 37.2442 81.8093 -0.159071 -0.127691 0.978906
-5.13126 37.0046 81.5134 -0.255843 -0.108365 0.960622
-6.15639 36.7402 81.1827 -0.378674 -0.141444 0.914658
-7.46226 36.3514 80.5795 -0.372655 -0.118312 0.920018
-8.4421 36.2042 80.16 -0.381973 -0.101416 0.918592
-9.41667 36.2506 79.7503 -0.423137 -0.109026 0.899482
-10.4732 36.3208 79.2604 -0.441945 -0.0956953 0.891625
-11.3423 36.4051 78.7699 -0.514179 -0.0970526 0.852109
-12.3757 36.4613 78.1248 -0.576819 -0.0564456 0.814916
-13.5782 36.6028 77.2848 -0.576784 -0.0541082 0.815103
-13.792 36.7247 77.1382 -0.59487 -0.0456271 0.802525
-13.397 37.6234 77.4814 -0.577761 -0.0563921 0.814253
-13.3032 38.607 77.6342 -0.594468 -0.0663823 0.801374
-13.295 39.6374 77.7287 -0.598564 -0.0626683 0.798592
-13.2729 41.0954 77.8641 -0.606139 -0.0672177 0.792513
-13.1005 42.1472 78.0713 -0.608171 -0.0426337 0.792637
-12.9657 43.1425 78.2249 -0.60485 -0.0440451 0.795118
-12.7095 44.546 78.4475 -0.600991 0.0105452 0.799182
-12.107 45.7338 78.8823 -0.597283 -0.0051255 0.801796
-11.0495 47.0405 79.6753 -0.572843 -0.030628 0.819084
-10.0402 48.0049 80.3446 -0.487011 -0.0255853 0.869808
-10.243 48.7686 80.2204 -0.53605 -0.00227992 0.844003
-11.0978 47.9868 79.6477 -0.550365 -0.00775081 0.834871
-11.731 47.3157 79.205 -0.584538 -0.0262257 0.810865
-12.3422 46.5918 78.7338 -0.593201 -0.0231212 0.804722
-13.0252 45.5301 78.1999 -0.593019 -0.0221222 0.804884
-13.4236 44.6447 77.908 -0.609485 -0.00151775 0.792603
-13.5391 43.6496 77.7974 -0.617792 -0.0159661 0.786179
-13.7213 42.2947 77.5983 -0.612974 -0.0463609 0.788742
-13.9255 41.3262 77.3834 -0.61013 -0.05609 0.790241
-13.9104 39.6773 77.2692 -0.603295 -0.0548589 0.795616
-13.8818 38.5129 77.1972 -0.594468 -0.0663823 0.801374
-14.1039 37.5566 76.9553 -0.593322 -0.0555811 0.80299
-14.5618 36.6707 76.5646 -0.594182 -0.0469313 0.80296
-15.5957 36.0619 75.737 -0.632411 -0.0393734 0.772579
-16.4601 35.8225 75.0026 -0.648887 0.00410162 0.760874
-17.6685 35.5507 73.9455 -0.664939 0.0414271 0.745748
-18.6301 35.2563 73.1127 -0.63442 0.0722727 0.768579
-19.463 34.9317 72.5014 -0.615019 0.10357 0.78168
-20.2417 34.4277 71.9787 -0.586555 0.0729505 0.806099
-20.9223 33.8619 71.4949 -0.606156 0.0437393 0.794142
-21.5866 33.1949 71.0236 -0.612626 0.0407287 0.789322
-22.3278 32.3607 70.4903 -0.613605 0.0297266 0.788989
-22.9476 31.3973 70.0375 -0.605832 0.0252776 0.795191
-23.3514 30.4741 69.7593 -0.606668 0.00687087 0.794713
-23.5489 29.4562 69.5903 -0.619892 -0.0168081 0.784498
-23.6472 28.0667 69.4901 -0.618154 -0.00833405 0.786007
-23.5774 26.9179 69.5474 -0.626681 -0.00235499 0.779247
-23.2374 25.7668 69.8098 -0.629751 -0.012905 0.776673
-22.6159 24.4908 70.2737 -0.62 -0.0278591 0.784094
-22.0603 23.7613 70.6847 -0.614057 -0.0289576 0.788671
-21.2719 23.0603 71.2628 -0.606033 -0.0265641 0.794996
-20.1945 22.6393 72.0659 -0.600003 -0.0271189 0.799529
-19.2127 22.7315 72.7924 -0.579231 -0.021724 0.814873
-18.1939 23.198 73.5307 -0.567603 -0.0259144 0.822738
-17.0301 24.2586 74.3347 -0.557312 -0.0330896 0.829559
-16.3052 25.2842 74.867 -0.549135 -0.0427094 0.834641
-15.6915 26.4042 75.3342 -0.550524 -0.0490119 0.833379
-15.2105 27.7384 75.7158 -0.530852 -0.0562898 0.845233
-14.8915 28.9273 75.9718 -0.538844 -0.0354969 0.841647
-14.6911 30.2555 76.1663 -0.549287 -0.036636 0.834821
-14.6687 31.2905 76.2259 -0.554016 -0.034107 0.831804
-14.5822 32.8295 76.378 -0.583203 -0.0453982 0.811057
-14.4116 33.9181 76.5596 -0.579412 -0.0387291 0.814086
-13.9151 35.0516 76.9578 -0.576406 -0.0375822 0.816297
-12.9037 35.728 77.708 -0.577467 -0.0435988 0.815248
-11.9465 35.7411 78.3287 -0.511201 -0.0886536 0.854823
-10.7848 35.6291 79.0153 -0.475237 -0.105054 0.872784
-9.4165 35.4884 79.6584 -0.423457 -0.108437 0.899403
-8.27463 35.4075 80.1446 -0.386584 -0.0966091 0.917173
-7.2288 35.5957 80.5948 -0.364687 -0.0939418 0.926379
-6.3422 35.8821 80.9719 -0.370419 -0.118235 0.920924
-5.19015 36.2149 81.4066 -0.237605 -0.130183 0.962202
-4.00407 36.4842 81.7 -0.181727 -0.146077 0.972169
-2.538 36.7114 81.9713 -0.147917 -0.12345 0.981187
-1.454 36.8536 82.1284 -0.0765314 -0.124911 0.988211
-0.149654 37.2796 82.2136 -0.00280251 -0.110977 0.993812
1.13122 37.6503 82.2029 0.0773177 -0.136199 0.98766
2.41799 37.755 82.1161 0.0782373 -0.135482 0.987686
3.40925 37.8181 81.9961 0.184335 -0.0946962 0.978291
4.58581 38.0377 81.7933 0.201372 -0.106065 0.973569
5.81959 38.1694 81.4934 0.254301 -0.0831843 0.963536
6.93756 38.1214 81.0969 0.396951 -0.0657374 0.915433
7.90936 37.8629 80.6621 0.371554 -0.0809018 0.924857
8.98937 37.1904 80.1453 0.390828 -0.0971933 0.915317
9.72365 36.5927 79.7634 0.408051 -0.114234 0.905546
10.7369 35.9388 79.194 0.452191 -0.103213 0.884978
11.603 35.5151 78.6473 0.512975 -0.0833887 0.8542
12.6032 35.2861 78.0236 0.533408 -0.0580301 0.843741
13.6134 35.3888 77.3828 0.536294 -0.0687415 0.841227
14.4472 35.636 76.8284 0.570442 -0.0612497 0.819051
15.457 36.2622 76.0831 0.650486 -0.0177766 0.75931
16.104 37.0465 75.5256 0.676712 0.025743 0.735797
16.5841 38.0896 75.0682 0.682249 0.0072615 0.730859
16.8045 39.3233 74.8607 0.704157 -0.0245177 0.709459
16.7505 40.5636 74.9819 0.695057 -0.0314101 0.718127
16.5637 41.7085 75.1817 0.70337 0.0056928 0.710801
16.2231 42.9327 75.5061 0.685271 0.0219519 0.727467
15.8397 43.8898 75.8056 0.669633 0.0339916 0.74191
15.1288 45.0187 76.4499 0.65739 -0.0167564 0.753317
14.4574 45.7133 77.0405 0.650629 -0.0157923 0.759231
13.2873 46.5364 77.9759 0.581784 0.0103603 0.813245
12.4528 47.102 78.562 0.571982 0.00886772 0.820187
11.3776 47.9492 79.3267 0.574496 -0.0378244 0.817619
10.4802 48.7418 79.9176 0.522361 -0.018405 0.852525
9.77565 49.3169 80.3553 0.507952 -0.00385884 0.861243
9.00486 49.9636 80.7926 0.462108 -0.00905058 0.886085
7.96001 50.6772 81.2952 0.412295 -0.0042744 0.91101
6.36544 50.9779 81.9172 0.318618 0.00702244 0.947856
4.75857 50.9377 82.4022 0.250224 -0.0103359 0.968121
3.77714 50.8738 82.6467 0.221388 -0.00671085 0.974926
2.23929 50.8467 82.9606 0.201743 -0.00676586 0.979405
0.551249 50.8549 83.0992 0.0739918 -0.0156048 0.997136
-1.21993 50.9243 83.0606 -0.0234504 -0.0176674 0.999567
-2.70029 50.9387 82.963 -0.11108 -0.0295104 0.992444
-3.73311 50.9168 82.7734 -0.202299 -0.0198557 0.979111
-4.72163 50.9107 82.5628 -0.233872 -0.031931 0.971337
-6.14772 50.7926 82.1381 -0.296952 -0.00686735 0.954867
-7.2461 50.5087 81.7072 -0.383201 -0.0177139 0.923489
-8.11868 50.0924 81.3212 -0.416109 -0.0266427 0.908606
-8.9312 49.6428 80.9257 -0.433383 -0.0170757 0.901045
-9.76551 49.1053 80.5112 -0.475225 -0.00713449 0.877898
-9.99252 49.8202 80.367 -0.523637 0.00417406 0.851931
-11.2502 48.8557 79.561 -0.549409 -0.0107753 0.835481
-11.8716 48.1577 79.12 -0.589134 -0.00514386 0.807933
-12.4965 47.5228 78.6455 -0.597029 -0.0143255 0.80209
-13.4294 46.1865 77.9203 -0.593961 -0.021199 0.804213
-13.9575 45.233 77.4917 -0.652835 -0.00471219 0.757262
-14.1263 44.0081 77.3261 -0.646406 -0.0178074 0.762785
-14.2648 42.6456 77.1716 -0.647141 -0.0244682 0.761978
-14.5589 41.5201 76.8857 -0.662421 -0.0331562 0.748062
-14.5604 40.1484 76.8022 -0.672422 -0.0459706 0.738739
-14.4783 38.9765 76.7712 -0.617356 -0.0586724 0.784492
-14.5978 37.98 76.606 -0.605816 -0.0432556 0.79422
-15.2713 37.1015 76.057 -0.635943 -0.0393917 0.769464
-16.1708 36.6743 75.2481 -0.664764 -0.013787 0.746918
-17.4977 36.3687 74.0581 -0.687285 0.007855 0.726341
-18.2367 36.153 73.4057 -0.660942 0.0381411 0.74945
-19.1615 35.8466 72.6181 -0.635767 0.071869 0.767498
-19.9508 35.5021 72.0616 -0.566346 0.0910562 0.819121
-21.1759 34.5238 71.2586 -0.606897 0.0551468 0.792864
-21.8385 33.8457 70.7936 -0.610404 0.0436805 0.790878
-22.9474 32.6118 69.9968 -0.602252 0.0412285 0.79709
-23.5579 31.6057 69.5653 -0.607315 0.0265223 0.794018
-23.9452 30.6313 69.3012 -0.625046 0.00972389 0.780019
-24.177 29.4267 69.0901 -0.625961 -0.017216 0.779646
-24.2365 28.3436 69.0272 -0.624417 -0.00493067 0.781045
-24.2573 27.2155 68.9966 -0.65033 -0.0219297 0.759323
-23.995 26.1581 69.1976 -0.657907 -0.0208817 0.752803
-23.6785 25.1654 69.4372 -0.630863 -0.0179452 0.775686
-22.8528 23.6385 70.0499 -0.631983 -0.0349501 0.774193
-22.2036 22.88 70.5348 -0.623532 -0.0283983 0.781268
-21.3519 22.2182 71.174 -0.607129 -0.0273531 0.79413
-20.5327 21.8891 71.7863 -0.598053 -0.0290158 0.80093
-19.6539 21.8489 72.4401 -0.597718 -0.0294193 0.801167
-18.7639 22.0604 73.094 -0.575528 -0.0305022 0.817169
-17.7031 22.6414 73.8357 -0.548811 -0.0329274 0.835296
-16.9468 23.2419 74.3534 -0.547272 -0.0310252 0.83638
-16.1965 24.199 74.8836 -0.5497 -0.0419226 0.834309
-15.5556 25.2155 75.356 -0.532535 -0.0386124 0.845295
-15.0562 26.142 75.6967 -0.507517 -0.0475675 0.860327
-14.5303 27.7018 76.1279 -0.520076 -0.0774583 0.850601
-14.1148 29.5384 76.5038 -0.542725 -0.0442075 0.838744
-14.0349 30.5532 76.6034 -0.540989 -0.0394434 0.840104
-14.059 32.0697 76.6978 -0.567884 -0.064887 0.820537
-13.9423 33.2033 76.8567 -0.572941 -0.0481598 0.818179
-13.6644 34.1461 77.0948 -0.574154 -0.0351867 0.817991
-12.7165 34.9852 77.8018 -0.543031 -0.0628816 0.836111
-11.8618 35.0369 78.3102 -0.504829 -0.0814904 0.859364
-10.6942 34.9063 78.9646 -0.448805 -0.117555 0.885848
-9.27572 34.7408 79.6356 -0.412464 -0.111393 0.904045
-8.21988 34.6184 80.0806 -0.395894 -0.112256 0.911407
-7.28699 34.7326 80.4777 -0.371643 -0.104801 0.922433
-5.74747 35.2635 81.1237 -0.307373 -0.156858 0.938333
-4.82656 35.5572 81.3874 -0.216221 -0.13382 0.967025
-3.82126 35.7628 81.6394 -0.18731 -0.125399 0.973818
-2.25347 35.9737 81.9137 -0.143404 -0.136651 0.980142
-0.866954 36.182 82.0627 -0.0380363 -0.114923 0.992637
0.655538 36.7668 82.1244 0.0625075 -0.133296 0.988982
2.0145 37.0117 82.0516 0.0808634 -0.121705 0.989263
3.27348 37.0292 81.9444 0.142915 -0.116833 0.981715
4.48058 37.2752 81.7241 0.215887 -0.117023 0.96938
5.69959 37.4489 81.4514 0.244162 -0.10859 0.963627
6.79187 37.402 81.1039 0.391594 -0.0946906 0.914916
7.95115 37.0977 80.5729 0.384458 -0.0830137 0.919292
8.74607 36.4514 80.1662 0.391093 -0.104057 0.91445
10.0037 35.4971 79.4755 0.422971 -0.128652 0.896964
11.3562 34.7885 78.7376 0.4854 -0.0873251 0.869164
12.2225 34.5346 78.2033 0.498891 -0.0624912 0.864301
13.72 34.6142 77.2515 0.53985 -0.0606563 0.839525
14.6453 34.9005 76.6534 0.545952 -0.0097204 0.83776
15.7884 35.6166 75.8145 0.62389 0.0555589 0.779529
16.406 36.2811 75.2701 0.6385 0.018701 0.768369
17.0598 37.5059 74.613 0.693304 0.0142343 0.720455
17.3256 38.5149 74.3401 0.699346 0.00240821 0.714726
17.3609 40.1694 74.3543 0.724329 -0.0164059 0.688346
17.2052 41.1859 74.5169 0.742973 -0.00445793 0.669211
16.9352 42.5045 74.7998 0.719002 0.00170296 0.694752
16.5708 43.6824 75.1555 0.685999 0.022231 0.72682
16.1723 44.5373 75.5031 0.669522 -0.0236708 0.742415
15.4719 45.617 76.1595 0.663389 -0.0170867 0.74808
14.8333 46.3127 76.7293 0.651756 -0.0113603 0.758339
13.9899 46.9231 77.4581 0.649548 -0.00715722 0.760285
13.0174 47.5801 78.1528 0.586461 0.00219938 0.809889
12.0792 48.2207 78.8414 0.573956 -0.0324965 0.818226
11.3833 48.873 79.3642 0.551392 -0.0271074 0.833111
10.6822 49.4959 79.8047 0.522002 -0.00921599 0.852894
9.47042 50.5096 80.5272 0.495498 0.00138679 0.868608
8.67586 51.1771 80.9699 0.449163 0.00648914 0.892492
7.83438 51.6031 81.3467 0.401561 0.022388 0.915555
6.62533 51.7515 81.8233 0.325959 0.00225132 0.945342
5.47048 51.6969 82.2152 0.303966 -0.00211635 0.952585
4.42516 51.6743 82.4924 0.24334 -0.00795501 0.969901
3.0431 51.5785 82.8025 0.195743 -0.000550511 0.98063
1.8494 51.6164 82.9954 0.100296 0.0132428 0.994864
0.544917 51.6414 83.1127 0.0262076 -0.0156104 0.998364
-0.840912 51.6531 83.0831 -0.0221787 -0.0182821 0.999586
-2.1012 51.6399 83.0146 -0.0733778 -0.011589 0.997236
-3.63733 51.6202 82.8086 -0.199818 -0.024798 0.979517
-4.67959 51.6209 82.5891 -0.226822 -0.0160739 0.973571
-5.98922 51.6182 82.1974 -0.298569 -0.0274708 0.953889
-6.99178 51.4269 81.8296 -0.376345 -0.0133237 0.926363
-7.94266 51.0664 81.4259 -0.390318 -0.0224745 0.920382
-8.90168 50.4629 80.9538 -0.430957 -0.0154208 0.90224
-9.5543 50.1243 80.6348 -0.479152 -0.00724258 0.876171
-10.0179 50.8039 80.3539 -0.530336 -0.00306776 0.847729
-11.0043 49.974 79.7342 -0.531774 0.00558566 0.846867
-11.7659 49.2855 79.1951 -0.579434 -0.00323165 0.815009
-12.4085 48.6626 78.7298 -0.59595 -0.0132974 0.802912
-13.0002 47.9691 78.2786 -0.597029 -0.0143255 0.80209
-13.7345 46.9246 77.6705 -0.639631 -0.0105848 0.768509
-14.3592 46.1437 77.1503 -0.656073 -0.00457286 0.754445
-14.6272 45.1475 76.8937 -0.66416 -0.00329615 0.74751
-14.8057 43.8705 76.7444 -0.658924 -0.00662515 0.751984
-14.9504 42.6821 76.5898 -0.66332 -0.0326338 0.747286
-15.16 41.502 76.3297 -0.678132 -0.0414145 0.733772
-15.2646 40.2915 76.1704 -0.675028 -0.0418572 0.736581
-15.0551 38.7052 76.2835 -0.664106 -0.0174188 0.747413
-15.7525 37.6671 75.6411 -0.668276 -0.0183337 0.743684
-16.4936 37.4388 74.972 -0.669129 -0.0127527 0.743025
-17.3106 37.3033 74.2196 -0.698635 0.0279077 0.714825
-18.0073 36.988 73.566 -0.676829 0.0240728 0.735409
-18.8068 36.8124 72.8529 -0.68174 0.159491 0.713995
-19.5403 36.6066 72.2014 -0.604523 0.150357 0.776183
-20.4917 36.1394 71.6166 -0.566466 0.0917494 0.818954
-21.1364 35.4891 71.2212 -0.606822 0.0559693 0.792864
-22.1171 34.8077 70.5159 -0.610442 0.0553364 0.790123
-22.8517 33.9331 69.999 -0.601179 0.0458451 0.797613
-23.4558 33.0342 69.6041 -0.59793 0.0285734 0.800908
-24.1129 32.0616 69.1256 -0.606563 0.024126 0.794664
-24.4938 31.0896 68.8432 -0.644381 -0.0068189 0.764672
-24.9116 29.9069 68.4827 -0.645848 -0.00471568 0.763451
-24.799 28.8982 68.5709 -0.646086 -0.00896517 0.763205
-24.9503 27.6993 68.4183 -0.652209 -0.0282439 0.757434
-24.8424 26.6719 68.471 -0.660323 -0.0263319 0.750515
-24.3906 25.5641 68.8324 -0.659186 -0.0230406 0.751626
-24.2761 24.5761 68.9086 -0.652596 -0.0267415 0.757153
-23.454 23.4645 69.5517 -0.636312 -0.0362936 0.770552
-22.8025 22.3246 70.0381 -0.625014 -0.0206733 0.78034
-22.0364 21.5481 70.6263 -0.614344 -0.0262476 0.788567
-21.263 21.0928 71.2132 -0.606201 -0.0193274 0.794999
-20.3505 21.1577 71.8958 -0.598053 -0.0290158 0.80093
-19.3967 20.9836 72.5997 -0.586965 -0.0389577 0.808527
-18.6079 21.3099 73.1696 -0.57031 -0.0403847 0.820423
-17.6812 21.7059 73.8109 -0.548798 -0.035399 0.835205
-16.8793 22.2889 74.3622 -0.547853 -0.0331356 0.835915
-16.189 22.912 74.8362 -0.546427 -0.0308722 0.836938
-15.4972 24.0674 75.338 -0.541779 -0.0418922 0.839411
-14.7593 24.9972 75.8272 -0.515501 -0.0345625 0.85619
-14.1983 26.479 76.2224 -0.511546 -0.0412047 0.858226
-13.7557 27.5028 76.5779 -0.509265 -0.0792968 0.856948
-13.4908 28.5366 76.8256 -0.507451 -0.0620771 0.859383
-13.3669 29.8972 76.9739 -0.522854 -0.0563047 0.850393
-13.2916 31.1999 77.131 -0.532165 -0.0766725 0.843161
-13.3629 32.3549 77.192 -0.521052 -0.0683008 0.850639
-13.2166 33.4686 77.3695 -0.507731 -0.0752063 0.858226
-12.2186 34.342 78.0355 -0.507358 -0.0708027 0.858814
-11.0287 34.0904 78.6986 -0.46483 -0.0799494 0.881579
-9.612 33.8936 79.3837 -0.417013 -0.0917535 0.903923
-8.46311 33.7178 79.8655 -0.396258 -0.108037 0.911761
-6.89354 33.7778 80.5073 -0.33325 -0.11612 0.93547
-5.97994 34.2853 80.8834 -0.325648 -0.151841 0.933219
-5.15521 34.7188 81.2106 -0.251756 -0.140982 0.956476
-3.99486 34.8624 81.5043 -0.170584 -0.106359 0.978729
-2.93589 35.0963 81.6845 -0.147465 -0.136512 0.979587
-1.85497 35.1227 81.8367 -0.109047 -0.145566 0.983182
-0.64577 35.3412 81.9755 -0.0488184 -0.114088 0.991439
0.346695 35.8723 82.0325 0.0513812 -0.108178 0.992784
1.55531 36.1502 81.9861 0.0716138 -0.104732 0.991919
2.82032 36.0851 81.8733 0.0919562 -0.103117 0.990376
4.29128 36.4552 81.6712 0.220284 -0.0918251 0.971084
5.52187 36.653 81.4047 0.258113 -0.128675 0.957146
6.57082 36.5805 81.0836 0.284035 -0.143895 0.947954
7.48275 36.2782 80.6855 0.389136 -0.1035 0.915346
8.5232 35.5532 80.1589 0.391887 -0.0893529 0.915538
9.27004 35.1083 79.7836 0.421105 -0.0907377 0.902445
10.3626 34.1935 79.1826 0.44141 -0.0950433 0.891968
11.183 33.8677 78.7172 0.458611 -0.105636 0.882336
12.3776 33.6688 78.0626 0.499425 -0.0480402 0.864968
13.6138 33.7798 77.2947 0.53198 -0.021555 0.846482
14.622 33.9419 76.6573 0.541614 -0.015269 0.840456
15.7701 34.4956 75.8741 0.583359 -0.00697928 0.812184
16.4029 35.0726 75.3591 0.642927 0.055651 0.763563
16.9282 35.8777 74.8386 0.668855 0.0618952 0.740646
17.5764 36.9971 74.1322 0.684008 0.0446389 0.727655
17.8014 37.977 73.8929 0.700209 0.0241854 0.713349
18.098 39.144 73.5671 0.717439 -0.00365313 0.696563
17.8792 40.0825 73.7804 0.730684 0.0113141 0.682382
17.7859 41.468 73.8717 0.747185 -0.0163895 0.664024
17.5476 42.4748 74.1652 0.724165 -0.03408 0.688596
17.3618 43.4772 74.3844 0.695213 0.00279455 0.718799
17.0398 44.5589 74.699 0.692735 -0.00749105 0.721151
16.4975 45.3305 75.229 0.684221 -0.0132687 0.729076
15.9631 46.1964 75.7295 0.67405 -0.00322662 0.738673
15.3742 47.0056 76.2617 0.665276 0.00676038 0.746547
14.6801 47.4056 76.8695 0.659367 0.00727455 0.751782
13.6011 48.2092 77.736 0.589216 -0.00935029 0.807919
12.6584 48.9209 78.4364 0.594063 -0.0113631 0.804338
11.9869 49.493 78.9417 0.595253 -0.00482331 0.803495
11.2272 50.1882 79.4573 0.546286 0.019427 0.837373
10.2432 50.774 80.0819 0.53147 0.00736397 0.846845
9.47845 51.5593 80.521 0.491914 -0.00207342 0.870641
8.67512 52.405 80.9623 0.435609 0.005702 0.899034
7.5484 52.3913 81.4515 0.403058 0.0245327 0.914846
6.16967 52.5161 81.9933 0.31366 -0.00915018 0.949112
5.11959 52.4931 82.3172 0.294578 0.00856766 0.955589
3.53712 52.3694 82.709 0.194898 -0.0239048 0.980242
2.36587 52.5947 82.929 0.143496 0.0100348 0.988524
0.589369 52.5995 83.1116 0.0477981 0.00416057 0.997321
-0.410785 52.3471 83.1045 -0.0216822 -0.0175322 0.999611
-1.77319 52.5207 83.0518 -0.0918191 0.00109255 0.995435
-2.96947 52.4919 82.9203 -0.10971 0.019933 0.993764
-4.1107 52.4953 82.736 -0.222383 -0.0188969 0.974435
-5.13469 52.5041 82.4786 -0.243716 -0.00524389 0.969832
-6.74268 52.3196 81.9346 -0.375475 -0.00384406 0.926824
-7.77676 52.0276 81.5055 -0.388225 -0.00309815 0.92155
-8.68452 51.745 81.0701 -0.445706 0.00191071 0.895163
-9.47748 51.1537 80.6575 -0.459692 0.00750656 0.887955
-9.74088 51.0431 80.5256 -0.488347 0.00606013 0.871649
4.071 44.8729 82.4135 0.224496 -0.0568024 0.972806
5.00575 44.2073 82.1581 0.267976 -0.0446817 0.961067
6.00426 44.1697 81.8203 0.32782 -0.0433236 0.943746
6.10476 44.6661 81.8081 0.321149 -0.0364283 0.946278
5.17632 44.983 82.1259 0.314571 -0.0299037 0.948763
4.79739 45.0144 82.2525 0.270176 -0.0410247 0.96077
-14.9616 35.3691 76.1891 -0.604211 -0.0202705 0.796567
-14.9634 34.0285 76.166 -0.588989 -0.0242255 0.807588
-15.1957 32.4303 75.9138 -0.570073 -0.0317687 0.820671
-15.2697 31.139 75.8194 -0.551153 -0.0325578 0.833769
-15.3258 30.1097 75.7423 -0.549287 -0.036636 0.834821
-15.5496 28.83 75.5417 -0.548229 -0.0341025 0.835616
-15.9529 27.5283 75.2224 -0.55353 -0.0360112 0.832042
-16.4065 26.4395 74.8637 -0.551309 -0.0487485 0.832876
-17.0564 25.377 74.3764 -0.555083 -0.0433547 0.830642
-17.6882 24.5864 73.9058 -0.560605 -0.0446331 0.82688
-18.4129 23.9532 73.4011 -0.580876 -0.0285896 0.81349
-19.4793 23.4878 72.6241 -0.579341 -0.0253613 0.814685
-20.3232 23.4574 71.9941 -0.602217 -0.02476 0.797948
-21.2594 23.9888 71.3037 -0.604269 -0.025845 0.796357
-21.9787 24.6904 70.7747 -0.606949 -0.0201349 0.794485
-22.4948 25.5981 70.3998 -0.619393 -0.0139961 0.784938
-22.8638 26.5995 70.1204 -0.626733 -0.00228628 0.779205
-23.0467 27.6883 69.9688 -0.625164 0.00337799 0.780486
-23.0102 28.7443 69.9941 -0.614569 -0.00733623 0.788764
-22.8285 29.9719 70.1521 -0.607849 -0.0110289 0.793976
-22.4354 30.9986 70.4404 -0.610245 0.0225728 0.791865
-21.9121 31.8365 70.8276 -0.614788 0.0197176 0.788446
-21.3251 32.538 71.2601 -0.60968 0.0417655 0.791533
-20.6882 33.17 71.7116 -0.606156 0.0437393 0.794142
-19.7373 33.9212 72.3966 -0.601305 0.057668 0.796926
-18.9127 34.3735 72.9839 -0.602732 0.06176 0.79555
-18.1348 34.6485 73.5776 -0.648781 0.0520501 0.758832
-17.1342 34.9273 74.4524 -0.646649 0.0302243 0.761815
-16.039 35.1556 75.3609 -0.642176 0.00464178 0.766535
-15.2495 35.1861 75.9661 -0.597764 -0.0136254 0.801489
-15.9295 34.2894 75.4572 -0.619412 -0.00265945 0.78438
-15.7354 33.3279 75.5694 -0.57775 -0.0292423 0.815497
-15.8116 32.0188 75.4913 -0.571241 -0.0183438 0.820553
-15.8859 30.9145 75.4039 -0.550713 -0.0322859 0.83407
-16.0274 29.5476 75.2491 -0.557131 -0.0301307 0.829869
-16.442 28.0179 74.9173 -0.554229 -0.0327888 0.831715
-16.8368 27.0214 74.6067 -0.557168 -0.0396288 0.829454
-17.6144 25.7813 74.02 -0.568033 -0.031456 0.822258
-18.3891 24.9067 73.4476 -0.55739 -0.0337089 0.829482
-19.1212 24.4155 72.9094 -0.589808 -0.0164663 0.807376
-20.1877 24.2553 72.1185 -0.600764 -0.0205743 0.799162
-20.9723 24.6887 71.5393 -0.60277 -0.0204217 0.797653
-21.6118 25.3284 71.0706 -0.603895 -0.0188746 0.79684
-22.1479 26.3767 70.6838 -0.61462 -0.00867849 0.788761
-22.4008 27.4596 70.4834 -0.619676 0.00505675 0.784841
-22.4405 28.4921 70.4452 -0.620672 0.00185568 0.784059
-22.1187 30.1739 70.7033 -0.619546 -0.000488614 0.784958
-21.656 31.0832 71.0469 -0.616826 0.0212951 0.786811
-21.1071 31.8196 71.4571 -0.616383 0.0217483 0.787146
-20.0495 32.8313 72.231 -0.612885 0.0496161 0.788611
-19.3128 33.3728 72.7556 -0.598462 0.0547425 0.799258
-18.347 33.819 73.4758 -0.64197 0.057324 0.764477
-17.3169 34.1366 74.3279 -0.64601 0.0283195 0.76239
-16.2492 34.2146 75.1882 -0.636248 0.0121676 0.771276
-16.7647 33.4958 74.7865 -0.626652 0.000235401 0.779299
-16.3706 32.2463 75.1039 -0.601051 -0.0106501 0.798424
-16.4868 30.8768 74.9924 -0.567554 -0.0242042 0.822932
-16.637 29.6987 74.8448 -0.562411 -0.02509 0.826474
-17 28.2768 74.5537 -0.558492 -0.0290447 0.828989
-17.3987 27.3227 74.2316 -0.584967 -0.0371072 0.810208
-18.3855 25.8992 73.4759 -0.579001 -0.0183739 0.815119
-19.1455 25.2997 72.9096 -0.590078 -0.0177365 0.80715
-19.9352 25.0562 72.3276 -0.594775 -0.0170578 0.803689
-21.0335 25.7819 71.5194 -0.602724 -0.0184888 0.797735
-21.5681 26.8009 71.1298 -0.602594 -0.00656606 0.798021
-21.8454 28.3378 70.9165 -0.620582 0.00168413 0.784133
-21.7337 29.3551 71.0064 -0.617832 0.000240471 0.78631
-21.3879 30.3112 71.278 -0.617771 0.000141833 0.786358
-20.8818 31.0903 71.6537 -0.616278 0.0217011 0.787229
-19.9094 32.1054 72.3842 -0.613007 0.0354658 0.789172
-18.6541 32.9112 73.273 -0.59145 0.0396031 0.805368
-17.5648 33.318 74.1464 -0.627157 0.0104861 0.778757
-17.33 33.3472 74.3318 -0.623474 0.00311039 0.781822
-17.0581 32.4941 74.5533 -0.620207 0.00594831 0.784416
-17.9742 32.3973 73.8297 -0.625296 0.0102065 0.780282
-18.851 32.0114 73.1727 -0.59274 0.0274765 0.80483
-19.9369 31.1948 72.3811 -0.599656 0.0107384 0.800186
-20.6423 30.3602 71.8613 -0.616278 0.0217011 0.787229
-21.0681 29.4554 71.5294 -0.617771 0.000141833 0.786358
-21.24 28.2406 71.3926 -0.611032 -0.00860216 0.791544
-21.0688 27.2283 71.5104 -0.602594 -0.00656586 0.798021
-20.5416 26.2822 71.9014 -0.602516 -0.0120728 0.797994
-19.7823 25.9449 72.4585 -0.592283 -0.016705 0.805552
-18.5783 26.7102 73.3584 -0.585049 -0.0195592 0.810727
-17.9275 27.6657 73.8641 -0.589554 -0.0293617 0.807195
-17.4453 28.8413 74.2578 -0.588387 -0.0284463 0.808079
-17.1986 30.0129 74.4703 -0.564039 -0.0272074 0.82529
-17.0649 31.1753 74.5714 -0.618526 0.0237176 0.785406
-17.018 31.7887 74.5903 -0.619801 0.014513 0.784578
-17.6625 31.2629 74.0991 -0.617897 0.0245815 0.785875
-17.7818 30.1052 74.0447 -0.611599 0.0115436 0.790908
-17.9668 29.0826 73.8873 -0.588643 -0.0294741 0.807855
-18.3717 28.1226 73.5563 -0.589554 -0.0293617 0.807195
-18.9224 27.3676 73.1222 -0.593404 -0.0241463 0.804524
-19.7611 26.9297 72.4971 -0.5919 -0.0211529 0.805731
-20.6083 28.1938 71.879 -0.611173 -0.013358 0.791384
-20.4968 29.3021 71.972 -0.611758 -0.00383582 0.791036
-19.9577 30.2607 72.378 -0.599788 0.00709214 0.800119
-18.9277 31.1257 73.1328 -0.593803 0.0150336 0.80447
-17.9269 31.2721 73.8908 -0.61466 0.0271668 0.788309
-18.3541 30.1036 73.6005 -0.612972 -0.00463369 0.790091
-18.6408 28.8097 73.366 -0.602585 -0.00741735 0.797899
-19.2155 28.0839 72.9279 -0.596614 -0.0244097 0.802154
-19.9811 28.3698 72.365 -0.61049 -0.00821307 0.791972
-19.6577 29.734 72.6052 -0.600183 0.00330246 0.799856
-19.1337 30.1802 72.9971 -0.600424 0.00299999 0.799676
-19.0843 30.1794 73.0341 -0.60674 -0.000769923 0.79485
