-11.6087 41.5732 80.2872 -0.539055 -0.0558113 0.840317
-11.8239 40.5729 80.0942 -0.527047 -0.0484301 0.848441
-11.8957 39.4765 79.9803 -0.531747 -0.0762812 0.843234
-11.3517 38.8721 80.2671 -0.529669 -0.0778796 0.844419
-10.1911 38.7049 80.8892 -0.451893 -0.0893976 0.887568
-9.14465 38.6759 81.4162 -0.422098 -0.105349 0.89983
-8.10551 38.7362 81.8894 -0.410183 -0.125856 0.903277
-7.19405 38.8671 82.286 -0.376828 -0.123344 0.917961
-6.14152 39.0155 82.6896 -0.287391 -0.0999001 0.951019
-4.68776 39.2346 83.055 -0.222866 -0.102107 0.969487
-3.69781 39.3718 83.2983 -0.224042 -0.101835 0.969244
-2.40066 39.5547 83.557 -0.0762398 -0.077741 0.993878
-1.32532 39.7499 83.6413 -0.0641186 -0.0892366 0.993944
-0.276908 39.9826 83.712 -0.0414067 -0.0736416 0.996422
0.874995 40.2357 83.7289 0.0465353 -0.105931 0.993015
1.92175 40.3635 83.6676 0.0732577 -0.0987439 0.992411
3.04627 40.4862 83.5495 0.145106 -0.109815 0.98326
4.49506 40.5381 83.2748 0.243544 -0.0800146 0.966508
5.5295 40.5141 83.0018 0.253177 -0.0914595 0.963084
6.64929 40.4914 82.6647 0.328301 -0.0540139 0.941365
7.82167 40.429 82.1751 0.408808 -0.035891 0.911914
8.93219 40.2999 81.67 0.426301 -0.0262574 0.903989
9.97948 40.1258 81.1057 0.481263 -0.0416738 0.875585
10.8815 39.8954 80.5972 0.483127 -0.0384801 0.874704
12.3016 39.3536 79.7483 0.514757 -0.012936 0.857238
13.1653 39.0965 79.1499 0.57541 -0.0266187 0.817427
14.2306 39.4622 78.3888 0.61891 -0.0462841 0.784097
14.4614 41.0771 78.2694 0.616514 -0.0335448 0.786457
13.8732 42.4379 78.7905 0.642513 0.00375956 0.765908
13.1401 43.3117 79.3422 0.603778 0.00884069 0.797099
12.3756 44.0244 79.8835 0.548759 -0.0317044 0.835332
11.5856 44.7431 80.4177 0.546595 -0.0123455 0.837295
10.5605 45.6441 81.0475 0.498302 -0.0216862 0.866725
9.37751 46.4986 81.7373 0.479072 -0.0260289 0.877235
8.59691 47.0528 82.1544 0.441408 -0.0468662 0.896076
7.36784 47.5737 82.7521 0.415352 -0.0246181 0.909326
6.309 47.6712 83.1512 0.307971 -0.0318603 0.95025
5.21229 47.6689 83.4716 0.25206 -0.0154032 0.967144
3.41223 47.7301 83.8862 0.221587 -0.0194754 0.974943
2.02211 47.6736 84.1346 0.172791 -0.0185706 0.984783
0.714928 47.6037 84.2414 0.0224479 -0.0446296 0.99856
-0.320701 47.5651 84.2455 -0.0414966 -0.0491959 0.996727
-1.88727 47.5594 84.1068 -0.0727788 -0.0794954 0.993946
-2.88992 47.5904 83.9852 -0.147289 -0.0988572 0.983803
-4.14185 47.6032 83.7739 -0.222725 -0.0765661 0.971862
-5.19799 47.6227 83.5258 -0.241655 -0.0557546 0.968435
-6.26589 47.5981 83.208 -0.295995 -0.0728203 0.952409
-7.70117 47.4128 82.6754 -0.424561 -0.0422854 0.904296
-8.4619 47.1221 82.2904 -0.433292 -0.0406574 0.900276
-8.5198 47.9838 82.3104 -0.435907 -0.0501427 0.898593
-7.43024 48.3013 82.8362 -0.410993 -0.0402088 0.91075
-6.30822 48.3769 83.2535 -0.278628 -0.049811 0.958686
-5.23926 48.3894 83.5409 -0.255102 -0.0317605 0.966384
-3.64407 48.3436 83.9427 -0.22941 -0.0546166 0.97157
-2.45713 48.3335 84.147 -0.114707 -0.105926 0.986213
-1.09005 48.342 84.2265 -0.0709738 -0.0777186 0.994179
0.186211 48.3681 84.2691 0.00542657 -0.0323445 0.999462
1.34973 48.4184 84.2621 0.0716431 -0.0139784 0.995062
2.88171 48.4837 84.0037 0.172293 -0.0283423 0.984638
4.1119 48.4857 83.7417 0.22012 -0.0171472 0.975322
5.796 48.4557 83.3091 0.279889 -0.00932489 0.959987
6.92473 48.4359 82.9746 0.341169 0.00365268 0.937919
7.83073 48.3097 82.5572 0.419715 -0.00708242 0.907628
8.74783 47.9089 82.1163 0.440185 -0.0163153 0.897664
9.58983 47.2845 81.6498 0.482439 -0.0345803 0.875159
10.4604 46.6369 81.1269 0.49431 -0.0284963 0.868764
11.4262 45.8869 80.5337 0.543143 -0.00848194 0.839597
12.1455 45.221 80.0572 0.554815 -0.0145484 0.831844
13.1926 44.2854 79.2922 0.590062 -0.0122762 0.806937
13.871 43.6279 78.785 0.603778 0.00884069 0.797099
14.5637 42.6197 78.1954 0.649601 0.0256557 0.759842
15.037 41.5379 77.8118 0.634524 -0.017703 0.7727
15.1816 39.7318 77.6472 0.659085 -0.0250712 0.751632
14.4543 38.5551 78.1697 0.614678 -0.0335208 0.788065
13.3243 38.2481 79.0037 0.579193 -0.0402003 0.814193
12.2667 38.5029 79.7557 0.542558 -0.0214034 0.839058
11.3961 38.8518 80.2666 0.482959 -0.0395548 0.874749
9.77361 39.3973 81.1858 0.48168 -0.0395967 0.875452
8.33544 39.6237 81.9008 0.410976 -0.0692482 0.909012
7.23409 39.7126 82.4049 0.383061 -0.0921525 0.918387
6.16099 39.7551 82.7424 0.288981 -0.0905523 0.95304
5.10237 39.7642 83.0449 0.262974 -0.0973623 0.959799
4.0565 39.7562 83.3092 0.199169 -0.106521 0.973114
2.95742 39.6901 83.4722 0.138406 -0.106066 0.984666
1.28164 39.5114 83.6283 0.0711864 -0.100598 0.992376
0.0451426 39.2735 83.6706 -0.0012241 -0.0712693 0.996656
-1.38799 38.9579 83.5662 -0.0642056 -0.0891701 0.993944
-2.43283 38.7623 83.4847 -0.0797877 -0.109012 0.990444
-3.54425 38.6204 83.2548 -0.224537 -0.100251 0.969293
-4.62772 38.4786 82.9893 -0.223604 -0.101867 0.969342
-6.17764 38.2403 82.5941 -0.235487 -0.110092 0.965621
-7.60958 38.009 82.0113 -0.383876 -0.106144 0.917216
-8.5206 37.9053 81.5871 -0.39403 -0.116642 0.911666
-9.46267 37.8931 81.1729 -0.450174 -0.0954451 0.887824
-10.545 37.9575 80.6304 -0.462868 -0.107429 0.879668
-11.6652 38.0441 79.9717 -0.537628 -0.104213 0.836716
-12.5709 38.2124 79.4045 -0.576424 -0.0819927 0.811972
-12.7208 39.2783 79.3875 -0.609032 -0.0713766 0.789926
-12.5757 40.2787 79.5781 -0.59918 -0.0355528 0.799537
-12.259 41.7253 79.8487 -0.590794 -0.0362033 0.805939
-11.9879 42.9284 80.1156 -0.568051 -0.0443479 0.821444
-11.6963 43.851 80.3671 -0.553348 -0.0534318 0.831234
-11.0246 45.3373 80.9225 -0.555554 -0.0621897 0.829146
-10.115 46.8057 81.4801 -0.452583 -0.00627276 0.891284
-9.34367 47.5392 81.8807 -0.488402 -0.0230964 0.871278
-9.14855 47.6485 81.9859 -0.435211 -0.0523913 0.898799
-9.39172 48.4581 81.9177 -0.46904 -0.0578283 0.880357
-10.1326 47.9075 81.4516 -0.469724 0.0151837 0.882678
-10.8976 47.0181 81.063 -0.523989 0.010003 0.849011
-11.5637 45.81 80.5818 -0.588086 -0.00811946 0.808752
-12.0087 44.914 80.2261 -0.556474 -0.0585772 0.828766
-12.4601 43.7325 79.8322 -0.580336 -0.0553913 0.812491
-12.738 42.6237 79.5549 -0.580784 -0.0584465 0.811957
-12.9714 41.5985 79.3231 -0.58664 -0.0325323 0.809077
-13.2716 39.9827 79.0201 -0.613308 -0.0507956 0.788208
-13.4158 38.9541 78.8204 -0.607925 -0.0701852 0.790878
-13.5803 37.8904 78.6038 -0.605944 -0.0676533 0.792626
-13.4096 37.3067 78.6862 -0.607173 -0.0633458 0.792041
-12.0455 37.3097 79.6344 -0.529923 -0.0939443 0.842678
-11.1631 37.253 80.1959 -0.508348 -0.111655 0.853128
-9.89066 37.1345 80.8733 -0.461512 -0.107752 0.880389
-8.86752 37.1083 81.3351 -0.394169 -0.116052 0.911681
-7.95175 37.1753 81.7406 -0.401265 -0.131332 0.90644
-6.50015 37.428 82.4031 -0.366607 -0.113534 0.922761
-5.52995 37.5809 82.6775 -0.251487 -0.0688348 0.965409
-4.32794 37.7515 82.985 -0.219058 -0.0851941 0.971886
-2.97688 37.9168 83.3151 -0.224588 -0.0976254 0.96955
-1.95916 38.0424 83.4399 -0.0993455 -0.123911 0.987306
-0.841334 38.3088 83.5433 -0.0642056 -0.0891701 0.993944
0.156655 38.5111 83.6013 0.0172253 -0.109932 0.992578
1.73783 38.7622 83.5191 0.0693985 -0.0995209 0.992609
3.17132 38.9282 83.3513 0.151314 -0.117409 0.981488
4.41122 38.9901 83.1392 0.241037 -0.100585 0.965289
5.62839 38.9856 82.8281 0.260687 -0.0911705 0.960989
6.67639 38.9809 82.5199 0.284527 -0.0848233 0.954905
7.72068 38.9291 82.1219 0.355462 -0.116111 0.927451
8.62853 38.8344 81.7075 0.419683 -0.0758479 0.904426
10.0014 38.5419 81.0216 0.457863 -0.059359 0.886438
10.849 38.2361 80.5405 0.482108 -0.0516365 0.874515
11.9202 37.7708 79.9185 0.504103 -0.0858675 0.858559
12.9178 37.4678 79.2506 0.552511 -0.075537 0.829051
13.7323 37.3969 78.6699 0.593316 -0.0434729 0.80357
14.8493 37.8397 77.831 0.612868 -0.0367952 0.789319
15.7282 39.1528 77.1423 0.659496 -0.0315348 0.751045
15.8741 40.1522 77.0528 0.661238 -0.0294031 0.7496
15.7634 41.227 77.1818 0.656237 -0.0202436 0.754282
15.2923 42.6782 77.5684 0.659571 0.0259183 0.751195
14.6118 43.8027 78.1371 0.66123 -0.000885985 0.750182
13.9885 44.5419 78.6883 0.633194 0.00251681 0.773107
13.206 45.2317 79.3006 0.610231 -0.0129027 0.792118
12.5083 45.8728 79.8286 0.550687 -0.0124035 0.834598
11.8416 46.5117 80.2709 0.546244 -0.00849511 0.837583
10.6473 47.4447 81.0562 0.519271 -0.0250117 0.853623
9.86635 48.0168 81.5258 0.484188 -0.0341005 0.874213
8.68838 48.8932 82.1572 0.458566 0.00612658 0.888639
7.7515 49.1681 82.6002 0.41086 0.00750157 0.911541
6.73786 49.2241 83.0395 0.341169 0.00365268 0.937919
5.28934 49.2381 83.4637 0.283152 -0.01122 0.958999
4.15463 49.2584 83.7457 0.217382 -0.0242289 0.975757
3.00298 49.2605 84.0049 0.195677 -0.0222522 0.980101
1.44893 49.2006 84.2438 0.136368 0.00865145 0.990617
0.147265 49.1471 84.2943 0.00559176 -0.0319803 0.999473
-1.55895 49.121 84.261 -0.0367704 -0.0209696 0.999103
-2.71086 49.1301 84.203 -0.114707 -0.105926 0.986213
-4.07447 49.1352 83.8672 -0.243563 -0.0340478 0.96927
-5.75536 49.159 83.4263 -0.25919 -0.0298043 0.965366
-6.80123 49.1413 83.1439 -0.317576 -0.0116195 0.946161
-8.10154 48.983 82.5567 -0.422691 -0.038093 0.905451
-9.21868 48.5473 82.0066 -0.431247 -0.0487274 0.900894
-9.47354 49.3237 81.9303 -0.463786 -0.0564219 0.882877
-10.7671 48.3735 81.1081 -0.484449 -0.0219668 0.873505
-11.3682 47.6041 80.7199 -0.583901 0.00904396 0.811775
-12.0997 46.2427 80.194 -0.590708 -0.00828693 0.806843
-12.6033 45.2613 79.8004 -0.608493 -0.01068 0.793484
-12.9975 44.3371 79.4872 -0.598148 -0.0339756 0.800253
-13.3484 42.9826 79.1443 -0.582662 -0.0549021 0.810847
-13.5918 41.8245 78.8751 -0.630038 -0.0431424 0.775218
-13.8124 40.7054 78.644 -0.623795 -0.0437353 0.780347
-13.9559 39.6422 78.4626 -0.623265 -0.0441866 0.780739
-14.1433 38.5905 78.2312 -0.612935 -0.0654169 0.78742
-14.4923 37.6724 77.8833 -0.608613 -0.061399 0.79106
-14.6711 36.5251 77.6703 -0.607766 -0.0484857 0.792634
-15.4837 36.036 77.0187 -0.598034 -0.0352075 0.800514
-16.4885 35.6227 76.1853 -0.659303 -0.017635 0.751669
-17.3585 35.3583 75.421 -0.645 0.00139759 0.764179
-18.4026 34.9196 74.4871 -0.67741 0.0672801 0.731474
-19.5075 34.3571 73.6007 -0.648709 0.0734616 0.757309
-20.2695 33.8351 73.0412 -0.604418 0.0559229 0.794702
-21.4505 32.7905 72.196 -0.617626 0.0468857 0.785073
-22.3996 31.5431 71.4943 -0.632052 0.0273844 0.774439
-22.8748 30.52 71.1431 -0.631691 0.0276559 0.774723
-23.1595 29.3736 70.9324 -0.62327 0.00923532 0.781952
-23.2463 28.1564 70.8763 -0.623799 0.00524883 0.781567
-23.1544 26.7556 70.9589 -0.620794 0.00230926 0.783956
-22.8897 25.665 71.1605 -0.626579 -0.0158773 0.779049
-22.3874 24.6484 71.534 -0.631074 -0.0290938 0.775176
-21.826 23.9034 71.9382 -0.605586 -0.0194794 0.795516
-20.5026 23.0291 72.9389 -0.607697 -0.014271 0.794038
-19.7021 23.2557 73.5416 -0.594554 -0.0238648 0.803702
-18.8713 23.8191 74.1665 -0.580346 -0.0187655 0.814153
-17.9138 24.88 74.8746 -0.579612 -0.020478 0.814634
-17.351 26.0065 75.302 -0.577917 -0.0200384 0.815849
-16.9615 26.9188 75.6498 -0.586945 -0.0570311 0.807615
-16.5988 27.8489 75.9567 -0.559042 -0.0374913 0.828236
-16.1909 29.1611 76.2754 -0.558323 -0.0273634 0.829171
-15.9982 30.228 76.448 -0.563114 -0.0349243 0.82564
-15.861 31.3273 76.5858 -0.567185 -0.0335101 0.822894
-15.6993 32.5737 76.7512 -0.578941 -0.0316918 0.814753
-15.5301 33.5933 76.9098 -0.580534 -0.0333565 0.813545
-15.2811 34.5793 77.1286 -0.590219 -0.020757 0.806976
-14.3278 35.7812 77.8877 -0.602895 -0.0501734 0.796222
-13.5096 36.3837 78.5381 -0.598177 -0.050728 0.799757
-12.4499 36.5547 79.3137 -0.522124 -0.0816292 0.848954
-11.391 36.5204 79.9582 -0.528986 -0.0925638 0.843405
-10.5175 36.4212 80.4394 -0.481383 -0.104702 0.870234
-9.26379 36.3292 81.0735 -0.406458 -0.111646 0.906707
-8.27622 36.326 81.5011 -0.395025 -0.103178 0.912858
-6.8295 36.5899 82.1487 -0.393544 -0.117247 0.911798
-5.66458 36.7841 82.5856 -0.251487 -0.0688348 0.965409
-4.69405 36.9369 82.8437 -0.211144 -0.0737402 0.974669
-3.46684 37.0833 83.1131 -0.206925 -0.0908326 0.973918
-2.2174 37.2222 83.311 -0.102658 -0.124861 0.986847
-1.17462 37.3911 83.4211 -0.0322609 -0.122719 0.991917
0.250976 37.737 83.5129 -0.0341117 -0.124398 0.991645
2.10356 38.0293 83.4221 0.0673284 -0.0995269 0.992752
3.21403 38.1534 83.2625 0.162644 -0.0901845 0.982554
4.21949 38.2313 83.1071 0.195708 -0.10896 0.973495
5.42855 38.2329 82.7995 0.25027 -0.103864 0.962588
6.43343 38.2251 82.5266 0.318689 -0.099207 0.941691
7.40841 38.1945 82.1496 0.355462 -0.116111 0.927451
8.34849 38.1071 81.7765 0.419683 -0.0758479 0.904426
9.44927 37.9001 81.2312 0.432012 -0.0839062 0.897952
10.6401 37.4959 80.6023 0.465453 -0.075871 0.881535
11.5692 37.0322 80.043 0.523553 -0.109006 0.844972
12.4212 36.7421 79.4698 0.532099 -0.110677 0.839417
13.5038 36.5786 78.7622 0.52172 -0.0870287 0.848224
14.3835 36.7046 78.146 0.600267 -0.0175917 0.799603
15.4062 37.3216 77.362 0.643609 -0.0147545 0.765188
16.2278 38.5825 76.6784 0.655147 -0.0208067 0.755103
16.476 39.5906 76.4899 0.688051 -0.0300397 0.72504
16.4615 40.7289 76.5519 0.695353 -0.0181225 0.718262
16.2801 41.7173 76.7138 0.66982 0.00932443 0.742461
15.901 42.8917 77.0268 0.660285 0.0254724 0.750582
15.4168 43.85 77.4269 0.664357 -0.000462969 0.747272
14.6543 44.8735 78.111 0.65693 -0.0115712 0.753863
14.0426 45.4813 78.649 0.636038 -0.00563171 0.771248
13.2026 46.2221 79.3107 0.615337 0.00672185 0.78817
12.3429 47.0469 79.9491 0.575792 0.00648036 0.816659
11.5522 47.6961 80.4709 0.545841 -0.0100038 0.837829
10.1766 48.7169 81.3759 0.541271 -0.0177418 0.84062
9.326 49.4366 81.8272 0.450176 -0.0168306 0.892781
8.50543 49.8753 82.2502 0.449348 -0.0140407 0.893241
7.58605 49.9743 82.6561 0.396994 -0.00100284 0.917589
6.58514 50.0007 83.0901 0.339416 0.00594853 0.938495
4.78489 50.0243 83.6263 0.285829 -0.0146066 0.958169
3.75542 50.0395 83.8586 0.214358 -0.0314159 0.97625
1.82951 49.99 84.1821 0.130337 -0.0164829 0.991333
0.512824 49.9391 84.3165 -0.00254782 -0.0212257 0.999697
-0.73112 49.9091 84.3006 -0.0140389 -0.0132059 0.999814
-1.97715 49.9119 84.2632 -0.0540689 0.0015083 0.998141
-3.2801 49.9051 84.0944 -0.247021 -0.0313295 0.968503
-4.56541 49.9 83.7656 -0.240734 -0.0380988 0.969789
-5.72882 49.9202 83.4548 -0.260498 -0.0261809 0.965119
-6.88506 49.9065 83.1077 -0.374386 0.00299143 0.927268
-8.40404 49.7423 82.444 -0.420977 -0.0306151 0.906553
-8.9871 49.5372 82.1696 -0.418098 -0.0396589 0.907428
-9.03477 50.3788 82.1619 -0.439099 0.00995187 0.898383
-8.0947 50.6426 82.6133 -0.406952 -0.00811687 0.912713
-6.43147 50.6648 83.2863 -0.316221 -0.011461 0.946627
-5.42261 50.6701 83.5676 -0.272858 -0.0463552 0.960931
-4.0351 50.6774 83.9301 -0.233723 -0.0469569 0.971168
-2.35693 50.6997 84.2167 -0.0776317 0.0174078 0.996823
-1.28672 50.6902 84.3015 -0.060777 -0.0164491 0.997733
0.109479 50.7086 84.3288 -0.0141293 -0.0306251 0.999431
1.37418 50.7416 84.2542 0.118319 -0.00348193 0.992817
2.56152 50.7922 84.099 0.159115 -0.00546703 0.986776
3.55226 50.8127 83.9087 0.189401 0.00258668 0.981896
4.54358 50.8075 83.7102 0.250177 -0.0231435 0.967188
5.50615 50.7782 83.4196 0.291315 0.00213278 0.956625
7.13834 50.7616 82.8622 0.376906 -0.00232549 0.926005
8.2325 50.7503 82.398 0.41864 -0.0157287 0.907484
9.23681 50.5067 81.8917 0.451199 -0.0130425 0.892328
9.96744 49.9301 81.5131 0.486302 -0.0108047 0.872726
10.8699 49.0915 80.9428 0.544572 -0.0237271 0.838356
11.8413 48.3936 80.2919 0.565619 -0.00733727 0.824209
12.5184 47.8528 79.7932 0.604038 0.0228208 0.796628
13.2213 47.2108 79.2751 0.614675 0.0164037 0.78861
14.1866 46.3299 78.5228 0.629876 0.00893038 0.776642
14.9947 45.5568 77.8249 0.656947 -0.0116161 0.753847
15.8392 44.4535 77.0547 0.670905 -0.0120065 0.741446
16.5169 43.1067 76.4797 0.678906 0.0101799 0.7335
16.779 42.1679 76.2328 0.699372 0.0072373 0.714721
17.0901 40.4097 75.9233 0.71377 -0.00661365 0.700349
17.064 39.3655 75.9154 0.696441 -0.0173143 0.717235
16.8046 38.2193 76.139 0.682924 -0.0125468 0.73037
16.3217 37.3191 76.5815 0.667184 -0.00925584 0.744474
15.6875 36.6058 77.1081 0.642828 -0.020927 0.765723
14.5156 35.9192 78.0291 0.585383 -0.0423555 0.809014
13.6394 35.7403 78.6195 0.538756 -0.0647129 0.839343
12.4807 35.883 79.319 0.520188 -0.0867702 0.84916
11.6046 36.123 79.9046 0.53127 -0.104151 0.840771
10.7404 36.5772 80.4589 0.44882 -0.0848595 0.889569
9.73002 37.0266 81.0133 0.437496 -0.0898657 0.894673
8.05947 37.3777 81.8189 0.37866 -0.0979582 0.919909
7.08559 37.4576 82.1969 0.354371 -0.0889272 0.930867
6.02855 37.474 82.555 0.269668 -0.126258 0.954358
4.93583 37.4387 82.8346 0.246994 -0.114203 0.96226
3.41679 37.398 83.146 0.201117 -0.137246 0.969789
2.27511 37.2946 83.3355 0.113115 -0.097988 0.987609
0.999217 37.0868 83.3961 0.0658029 -0.11188 0.991531
-0.11865 36.8604 83.3899 -0.0328016 -0.123578 0.991791
-1.41908 36.559 83.3108 -0.0319651 -0.122104 0.992002
-2.60127 36.4144 83.1708 -0.111996 -0.127007 0.985522
-3.91721 36.2435 82.9547 -0.160181 -0.135619 0.977725
-5.34445 36.0636 82.6175 -0.289842 -0.106068 0.94948
-6.36449 35.8848 82.2282 -0.335483 -0.144036 0.930964
-7.88137 35.5863 81.5783 -0.382609 -0.10939 0.917412
-9.07573 35.539 81.0543 -0.414704 -0.12238 0.901688
-10.5594 35.6408 80.3222 -0.480658 -0.104911 0.87061
-11.8567 35.7942 79.5988 -0.515115 -0.0928633 0.852075
-12.8006 35.7602 79.02 -0.518705 -0.0886967 0.850337
-13.6074 35.4347 78.4048 -0.598177 -0.050728 0.799757
-14.2735 34.845 77.8629 -0.577059 -0.0578842 0.814302
-14.821 33.6031 77.418 -0.581441 -0.0363856 0.812774
-15.1003 32.3538 77.168 -0.574815 -0.0381538 0.817353
-15.2196 31.2731 77.0301 -0.57217 -0.0376414 0.819262
-15.3905 29.7943 76.837 -0.558858 -0.041166 0.828227
-15.6225 28.7254 76.6423 -0.552193 -0.0301951 0.833154
-15.9443 27.7294 76.3909 -0.554882 -0.0397027 0.830935
-16.3208 26.7804 76.082 -0.557356 -0.0484232 0.82886
-16.7157 25.8045 75.7462 -0.581425 -0.0397555 0.812363
-17.1208 24.9159 75.4363 -0.5587 -0.0475264 0.828007
-17.7515 23.8719 74.9561 -0.560038 -0.0363496 0.827637
-18.6451 23.053 74.2986 -0.572527 -0.0303226 0.819282
-19.7763 22.3218 73.4618 -0.594956 -0.0202445 0.803503
-20.5638 22.1141 72.8751 -0.608878 -0.0145667 0.792894
-21.7963 22.8359 71.9288 -0.613272 -0.0328029 0.78919
-22.5685 23.727 71.351 -0.632707 -0.0338288 0.773639
-23.1722 24.6488 70.8946 -0.633993 -0.0277336 0.772834
-23.7027 26.1802 70.4955 -0.653583 -0.0208392 0.756567
-23.8372 27.2107 70.3964 -0.647391 -0.00485215 0.762143
-23.8764 28.3047 70.3722 -0.635557 -0.000779637 0.771882
-23.7968 29.4247 70.4249 -0.621965 0.00796569 0.783004
-23.2846 31.2839 70.7791 -0.627137 0.0324533 0.778186
-22.801 32.1704 71.1422 -0.633398 0.0285601 0.773299
-21.9197 33.2934 71.8005 -0.611072 0.0420381 0.790458
-21.1469 34.0085 72.3612 -0.610989 0.051697 0.7899
-20.3385 34.6793 72.9198 -0.604191 0.0770561 0.793105
-19.3305 35.3029 73.6403 -0.63044 0.0799709 0.77169
-18.3917 35.7566 74.4396 -0.702931 0.0501438 0.709488
-17.4589 36.1538 75.3367 -0.674205 0.0249648 0.73659
-16.6646 36.3986 76.0438 -0.665166 -0.0114776 0.746604
-15.784 36.9116 76.8465 -0.642248 -0.039926 0.763715
-15.0986 37.9381 77.4402 -0.610482 -0.0439658 0.790684
-14.7426 38.9219 77.7925 -0.613159 -0.0647269 0.787303
-14.4891 40.3214 78.0754 -0.623265 -0.0441866 0.780739
-14.3638 41.4628 78.2457 -0.623795 -0.0437353 0.780347
-14.1218 42.4207 78.4776 -0.630038 -0.0431424 0.775218
-13.8651 43.6567 78.7661 -0.649638 -0.0372847 0.759225
-13.5379 44.9012 79.0801 -0.629715 -0.0143575 0.776276
-12.9931 45.974 79.5124 -0.60986 -0.0129864 0.792402
-12.3955 47.1212 79.9862 -0.599363 -0.00904005 0.800354
-11.692 48.4056 80.4966 -0.568108 -0.0152477 0.822813
-10.983 49.1667 80.9928 -0.551308 -0.0051245 0.834139
-10.25 49.7317 81.4654 -0.538596 -0.00670855 0.842537
-9.51487 50.1866 81.9297 -0.484257 0.00976659 0.873324
-9.71033 50.9448 81.7991 -0.526931 0.0149028 0.849756
-10.5175 50.4424 81.2992 -0.536623 0.00251792 0.843772
-11.3164 49.8304 80.7698 -0.564082 -0.00656101 0.825692
-12.0983 49.1624 80.2272 -0.569908 -0.00895199 0.821656
-12.5633 48.3333 79.8777 -0.624467 -0.0118586 0.780961
-13.0854 47.2229 79.4493 -0.616629 0.000550126 0.787247
-13.6792 46.1084 78.982 -0.645037 -0.0036737 0.763366
-14.1283 45.2491 78.583 -0.654846 -0.0159082 0.755561
-14.53 43.7749 78.1988 -0.650326 -0.0273733 0.759161
-14.8625 42.3406 77.8725 -0.631542 -0.0256564 0.774911
-15.1422 41.38 77.6118 -0.628685 -0.0369964 0.776718
-15.1799 40.1314 77.5156 -0.631695 -0.0117877 0.774551
-15.4053 39.0011 77.2739 -0.682554 -0.0282109 0.730262
-15.877 37.9102 76.7943 -0.682114 -0.0276966 0.730714
-16.9137 37.1701 75.8326 -0.665999 -0.0104651 0.745879
-17.6274 36.9501 75.1248 -0.714634 0.0270184 0.698733
-18.3108 36.6217 74.4642 -0.703141 0.037734 0.710048
-19.0204 36.2589 73.7996 -0.612733 0.111034 0.781284
-19.9198 35.8429 73.1331 -0.612798 0.0705593 0.787083
-20.8102 35.2257 72.5072 -0.604301 0.0775395 0.792974
-21.9951 34.2196 71.6928 -0.60997 0.0520137 0.790663
-22.8905 33.2103 71.0325 -0.633538 0.0259558 0.773276
-23.5248 32.2414 70.5467 -0.633392 0.0279001 0.773328
-23.9872 31.2962 70.2211 -0.621165 0.0361728 0.782844
-24.3941 29.6922 69.9471 -0.634528 0.000804228 0.772711
-24.5089 28.5901 69.8389 -0.646434 -0.00758479 0.762932
-24.4767 27.5825 69.8546 -0.651068 -0.0124095 0.758902
-24.2961 26.0456 69.9794 -0.653556 -0.0216797 0.756567
-24.021 24.9998 70.1888 -0.653993 -0.0208882 0.756212
-23.3324 23.626 70.7185 -0.634991 -0.0377751 0.771595
-22.3387 22.3742 71.4757 -0.634793 -0.0359088 0.771848
-21.3531 21.4887 72.2357 -0.624546 -0.0111872 0.780907
-20.2202 21.3177 73.1105 -0.593472 -0.0183488 0.804645
-19.2098 21.7297 73.8645 -0.579947 -0.0271581 0.814004
-18.3814 22.3479 74.4569 -0.564579 -0.0319319 0.82476
-17.656 22.926 74.9793 -0.560165 -0.0357881 0.827575
-17.0054 23.6647 75.4442 -0.5542 -0.035462 0.831628
-16.5226 24.5735 75.8202 -0.5587 -0.0475264 0.828007
-15.968 25.7432 76.2451 -0.536088 -0.0578668 0.842136
-15.6281 26.759 76.5388 -0.530118 -0.0630525 0.845565
-15.243 27.6934 76.8511 -0.513452 -0.0595111 0.856046
-14.8811 28.8588 77.1346 -0.549754 -0.0338821 0.834638
-14.7009 30.1678 77.3236 -0.555425 -0.0544577 0.829764
-14.5882 31.4924 77.4783 -0.567469 -0.0433609 0.822247
-14.3966 32.6328 77.6717 -0.562277 -0.0448437 0.825732
-13.8473 34.1732 78.123 -0.565269 -0.0398 0.823946
-13.049 34.8559 78.76 -0.588746 -0.0758221 0.804754
-11.6708 35.0174 79.6285 -0.505701 -0.0952108 0.857331
-10.7707 34.9029 80.1171 -0.48086 -0.104321 0.870569
-9.32595 34.7739 80.8364 -0.416836 -0.119502 0.901078
-8.30095 34.7603 81.2944 -0.385796 -0.120124 0.91473
-6.91131 35.0213 81.8944 -0.343651 -0.147077 0.927486
-5.9023 35.1721 82.2829 -0.331058 -0.146736 0.932127
-4.8403 35.3629 82.674 -0.222753 -0.156025 0.960232
-3.40714 35.5257 82.9379 -0.160233 -0.138596 0.9773
-2.23706 35.6907 83.1163 -0.113659 -0.132629 0.98462
-0.760312 35.9149 83.2528 -0.0274162 -0.129413 0.991174
0.359911 36.1839 83.3172 0.0134944 -0.148126 0.988093
1.43509 36.4126 83.2833 0.0747603 -0.147813 0.986163
3.08651 36.5642 83.1065 0.167764 -0.137752 0.976025
4.51674 36.679 82.8159 0.211397 -0.122374 0.969363
5.69242 36.71 82.5504 0.260348 -0.119572 0.957246
6.72769 36.7272 82.2344 0.290367 -0.135768 0.947233
7.75716 36.6529 81.8631 0.375284 -0.102516 0.920871
9.19724 36.3616 81.1937 0.404452 -0.109033 0.908036
10.1581 36.0277 80.6989 0.443599 -0.085081 0.892177
11.2394 35.3864 80.043 0.528773 -0.103744 0.842399
12.1687 35.1161 79.4612 0.511993 -0.0435425 0.857838
13.239 34.9457 78.8008 0.515018 -0.0526343 0.855503
14.1697 35.0287 78.1955 0.559988 -0.0449782 0.826925
15.1259 35.3394 77.5566 0.611744 -0.000234697 0.790619
15.8621 35.8056 76.9568 0.622616 0.0218705 0.782222
16.4824 36.4013 76.4279 0.67326 0.0189086 0.739152
17.0357 37.2074 75.9098 0.67798 0.00202204 0.73495
17.482 38.2871 75.5062 0.706584 -0.0100258 0.706781
17.6947 39.5534 75.286 0.737119 0.0112552 0.675486
17.6535 40.5839 75.3289 0.753732 -0.00875078 0.657124
17.4635 41.7097 75.5558 0.71073 -0.000662604 0.703426
17.1012 43.342 75.9024 0.707587 0.00845534 0.706505
16.5667 44.5486 76.4118 0.678673 0.0125232 0.733774
16.0676 45.3329 76.8618 0.674618 -0.00286663 0.738093
15.4809 46.0346 77.3957 0.678702 0.0031305 0.734396
14.2884 47.1795 78.4224 0.644949 0.00633461 0.763998
13.4294 48.0565 79.0963 0.609476 0.0187844 0.792548
12.2933 48.9632 79.9624 0.601323 -0.0103672 0.798938
11.5275 49.4907 80.5161 0.568651 -0.00420064 0.822331
10.6843 50.2405 81.0721 0.534462 0.000840567 0.845104
10.0243 50.9537 81.4864 0.530818 -0.00189168 0.847462
9.16331 51.4604 81.9384 0.456719 0.0156918 0.889465
8.15419 51.5349 82.4477 0.41864 -0.0157287 0.907484
6.88802 51.5286 82.9494 0.364056 0.0132235 0.931283
5.41198 51.5463 83.4466 0.28659 0.011217 0.957935
4.36665 51.6023 83.7528 0.234995 0.00714114 0.970706
3.34515 51.5733 83.9475 0.186526 -0.00146955 0.982449
2.33114 51.5505 84.1401 0.18109 0.00587866 0.983406
1.33042 51.5071 84.2527 0.108693 0.00833729 0.994037
-0.243231 51.4967 84.3468 -0.0228132 -0.0168023 0.999505
-1.42597 51.4766 84.3038 -0.037716 -0.00826757 0.999254
-2.43354 51.4813 84.2207 -0.0858981 -0.0193488 0.996116
-4.115 51.4699 83.9479 -0.216563 -0.0159763 0.976116
-5.16287 51.4044 83.6749 -0.269488 -0.0283175 0.962527
-6.30733 51.4103 83.3337 -0.328718 -0.00237072 0.944043
-7.79422 51.4809 82.7507 -0.3742 -0.0163576 0.927202
-8.85662 51.3271 82.2403 -0.443601 -0.00157709 0.896175
-9.47168 51.0932 81.9424 -0.480451 0.0120207 0.87552
-10.1488 51.6063 81.5171 -0.513535 -0.00313235 0.858063
-11.092 51.0912 80.9357 -0.551082 -0.010607 0.833718
-11.8184 50.4725 80.4252 -0.573531 0.00645321 0.819158
-12.5333 49.9794 79.9248 -0.599608 -0.00346198 0.799712
-13.0748 48.8019 79.4759 -0.624113 -0.0125921 0.781232
-13.5295 47.9193 79.0989 -0.6218 -0.0056905 0.783124
-14.2029 46.4887 78.5119 -0.671875 -0.00674957 0.740632
-14.8141 45.5182 77.9764 -0.674298 0.0107779 0.738279
-15.1317 44.3999 77.6888 -0.660995 0.00409411 0.750239
-15.288 43.2361 77.539 -0.642371 -0.0219498 0.766075
-15.7617 41.6518 77.0573 -0.682192 -0.0411188 0.730012
-15.8098 40.0278 76.9338 -0.691236 -0.027905 0.722087
-16.2984 38.654 76.427 -0.684327 -0.0229647 0.728813
-16.9464 38.0992 75.8167 -0.695706 0.00191052 0.71695
-17.595 37.7648 75.1394 -0.723473 0.0141825 0.690198
-18.49 37.4377 74.2464 -0.716966 0.0375364 0.695768
-19.2692 36.9318 73.4713 -0.66456 0.102099 0.735259
-20.0766 36.8191 72.8752 -0.605398 0.13852 0.783713
-20.9082 36.0642 72.356 -0.592888 0.0663979 0.802508
-21.6975 35.3878 71.8305 -0.598926 0.0701666 0.797704
-22.7241 34.4353 71.1103 -0.60844 0.0525271 0.791823
-23.4767 33.5938 70.5552 -0.616166 0.0159636 0.787454
-24.2967 32.1364 69.9535 -0.608146 0.0230961 0.793485
-24.7473 31.0203 69.6422 -0.625884 0.0194435 0.779362
-25.0584 29.5503 69.3834 -0.65033 -0.00468904 0.759611
-25.1248 28.0221 69.3113 -0.646455 -0.00773561 0.762913
-25.0273 26.8774 69.37 -0.65903 -0.019684 0.751858
-24.8695 25.5255 69.4687 -0.658405 -0.0198146 0.752397
-24.2916 24.1464 69.9383 -0.650656 -0.0142688 0.759238
-23.9402 23.1785 70.1918 -0.641161 -0.037936 0.766466
-23.0813 22.2077 70.8564 -0.631917 -0.0251122 0.774532
-22.4904 21.3326 71.3186 -0.6254 -0.0200049 0.780007
-21.5315 20.5972 72.0654 -0.632066 -0.0265781 0.774458
-20.7715 19.9915 72.6423 -0.60744 -0.0539638 0.792317
-20.0837 20.4863 73.1789 -0.586397 -0.0366142 0.809196
-19.0166 20.7889 73.9599 -0.572045 -0.0373276 0.819322
-18.3525 21.3628 74.4399 -0.567066 -0.0294675 0.823139
-17.6571 21.9842 74.9375 -0.564961 -0.0340405 0.824411
-16.9001 22.5836 75.4683 -0.5541 -0.0354956 0.831693
-16.2675 23.3923 75.9245 -0.534744 -0.0304457 0.844136
-15.6569 24.7817 76.3876 -0.535535 -0.0456841 0.843276
-15.1159 26.0213 76.8076 -0.536896 -0.0596689 0.841509
-14.6553 27.1221 77.1656 -0.511976 -0.0563348 0.857148
-14.1265 28.5659 77.5867 -0.515711 -0.0633414 0.854418
-14.0312 30.2261 77.7805 -0.540638 -0.0655708 0.838372
-13.8706 31.3861 77.9619 -0.562681 -0.0476468 0.825296
-13.5699 32.915 78.2444 -0.553547 -0.0522036 0.831141
-13.2334 33.797 78.5247 -0.576353 -0.0582607 0.814763
-12.3455 34.1801 79.1366 -0.509724 -0.0943449 0.855051
-11.3326 34.2518 79.7306 -0.488595 -0.103228 0.866331
-10.407 34.0938 80.2211 -0.479876 -0.10352 0.871207
-9.25579 33.9368 80.7618 -0.413876 -0.101835 0.904548
-8.33073 33.9323 81.173 -0.4066 -0.11136 0.906682
-7.01015 34.1992 81.723 -0.349339 -0.154367 0.924193
-5.6643 34.3323 82.2347 -0.307965 -0.164801 0.936497
-4.54851 34.6026 82.6182 -0.222753 -0.156025 0.960232
-2.97416 34.7806 82.9021 -0.147395 -0.140488 0.978979
-1.29857 34.8033 83.0733 -0.0599795 -0.162386 0.984548
0.0594782 35.2784 83.1842 0.0118606 -0.15525 0.987057
1.10424 35.5613 83.1773 0.0536645 -0.166037 0.984658
2.26212 35.7889 83.1203 0.0799627 -0.145908 0.986061
3.29996 35.808 82.9859 0.163053 -0.107351 0.9802
4.76473 35.7528 82.6728 0.228073 -0.0862598 0.969764
6.23769 35.8734 82.2751 0.295202 -0.0906499 0.951125
7.2954 35.8596 81.9455 0.296707 -0.0921999 0.950505
8.3188 35.7758 81.5141 0.400162 -0.107823 0.910063
9.67747 35.3137 80.8527 0.404148 -0.110322 0.908016
10.6168 34.8035 80.3621 0.485005 -0.0907194 0.868208
11.5945 34.3917 79.76 0.504096 -0.0515275 0.862077
12.8677 34.1177 78.9843 0.518412 -0.0395545 0.85421
13.8126 34.2026 78.411 0.537487 -0.034292 0.842273
14.6485 34.3608 77.8685 0.544241 -0.0149303 0.838787
15.622 34.6489 77.1665 0.599085 -0.0188927 0.800463
16.3526 35.1436 76.585 0.648119 0.0222484 0.76044
16.986 35.8828 75.9833 0.674465 0.0229102 0.737952
17.5305 36.7091 75.4696 0.672194 0.0140515 0.74024
18.0303 38.0023 74.927 0.719511 0.0122607 0.69437
18.2482 39.112 74.6904 0.734655 0.0094799 0.678242
18.3461 40.362 74.5388 0.741581 0.0078967 0.670589
17.9719 42.0583 74.9915 0.7508 -0.00728924 0.660435
17.7585 43.0196 75.2338 0.737394 -0.0099496 0.675219
17.3042 44.4337 75.6894 0.702893 0.00869563 0.711242
16.8944 45.3644 76.0806 0.697869 0.00795126 0.716181
16.2844 46.0994 76.6554 0.67828 0.0075896 0.734763
15.4592 47.2256 77.4143 0.680166 0.00439506 0.73304
14.3204 48.1831 78.3775 0.631411 0.0232873 0.775069
13.2412 49.1199 79.236 0.628019 0.0100657 0.778133
12.2625 49.8731 79.9866 0.588405 -0.00723313 0.808503
11.4332 50.5749 80.5844 0.563896 0.00119877 0.825525
10.6009 51.4375 81.1208 0.538797 0.00389663 0.842402
10.0312 52.2234 81.4702 0.521283 0.0103656 0.85328
9.0945 52.3148 81.9556 0.461105 0.00688558 0.887228
8.06262 52.291 82.5003 0.414707 -0.0128103 0.908031
6.73241 52.3067 83.016 0.345563 -0.0114071 0.938172
5.58001 52.2903 83.3817 0.278325 0.00945686 0.960376
4.17446 52.5089 83.7916 0.234733 0.00883828 0.97069
3.12421 52.3844 83.9875 0.17485 0.0130401 0.984509
2.08696 52.2981 84.1736 0.141817 0.00232897 0.989244
0.716971 52.2786 84.3179 0.0915381 0.00778721 0.995611
-0.574574 52.3452 84.3418 -0.0340108 -0.00488577 0.999406
-1.63177 52.2831 84.3025 -0.0365533 -0.00411899 0.999323
-2.62808 52.2316 84.1931 -0.112467 0.0172383 0.993506
-3.64492 52.4391 84.0744 -0.163399 -0.00563798 0.984917
-5.14041 52.367 83.7 -0.255275 -0.0222815 0.966559
-6.12763 52.2477 83.401 -0.331562 -0.0135612 0.942949
-7.1957 52.2526 82.9999 -0.352105 0.000238108 0.935955
-8.35254 52.2711 82.5023 -0.428771 -0.0217444 0.902091
-9.34402 52.156 81.9974 -0.483452 0.0145872 0.874902
-9.46001 52.0463 81.9314 -0.509568 0.00616455 0.860347
-16.1023 34.946 76.5087 -0.658171 -0.017089 0.752674
-17.4651 34.4823 75.3348 -0.643701 0.00257951 0.76527
-18.2895 34.1536 74.6636 -0.639582 0.0496802 0.766893
-19.1828 33.7018 73.9283 -0.650009 0.0576672 0.757735
-19.997 33.1543 73.3046 -0.630161 0.0714027 0.773175
-20.9306 32.3296 72.6323 -0.617511 0.0402649 0.785499
-21.6138 31.524 72.1293 -0.618031 0.0333405 0.785446
-22.2124 30.4755 71.6826 -0.630348 0.0263708 0.775865
-22.5289 29.3209 71.4371 -0.631632 0.00493906 0.775253
-22.6122 27.6972 71.3853 -0.62076 0.00263411 0.783983
-22.475 26.6237 71.4927 -0.617896 -0.000475047 0.78626
-22.1712 25.6331 71.7237 -0.616588 -0.0108938 0.787199
-21.5883 24.7382 72.1433 -0.602461 -0.0242414 0.79778
-20.7283 24.0055 72.7837 -0.607763 -0.0141376 0.793989
-19.6441 24.2128 73.6127 -0.599603 -0.0184435 0.800038
-18.6773 25.0159 74.3329 -0.581297 -0.0198315 0.81345
-18.1218 25.9062 74.7515 -0.580368 -0.019608 0.814117
-17.6095 27.0321 75.1867 -0.587229 -0.058143 0.80733
-17.2188 28.0252 75.5352 -0.5972 -0.0379502 0.801174
-16.9008 28.9439 75.7882 -0.560667 -0.0259763 0.827633
-16.5882 30.5402 76.0579 -0.56424 -0.0338775 0.824915
-16.401 31.9006 76.2116 -0.588681 -0.0180195 0.808009
-16.2578 32.9552 76.3556 -0.598798 -0.0280227 0.800407
-16.2687 34.1629 76.3447 -0.647302 0.00568495 0.761723
-17.095 33.71 75.6754 -0.641538 0.0300748 0.766499
-16.9589 32.2441 75.8036 -0.599485 -0.0104783 0.800127
-17.1056 31.1765 75.6985 -0.586808 -0.00260329 0.809721
-17.2707 30.1502 75.5743 -0.563484 -0.0295102 0.825587
-17.4766 29.1757 75.3894 -0.597264 -0.029563 0.801499
-17.8009 28.2457 75.1118 -0.5972 -0.0379502 0.801174
-18.164 27.3165 74.7879 -0.600375 -0.0439009 0.798513
-18.6076 26.4128 74.4178 -0.581283 -0.0295323 0.81312
-19.1889 25.5779 73.9811 -0.581158 -0.0207797 0.813525
-20.0509 24.9399 73.3188 -0.606463 -0.0296615 0.794559
-21.062 25.2761 72.5562 -0.606346 -0.0241003 0.794817
-21.697 26.2357 72.1013 -0.610155 -0.0132814 0.792094
-21.9492 27.3133 71.9063 -0.617828 -0.00055248 0.786313
-21.9967 28.3228 71.8727 -0.62456 -0.0025286 0.780971
-21.8564 29.4504 71.9841 -0.6311 0.00552168 0.775682
-21.4524 30.5493 72.2973 -0.623926 0.0295992 0.780874
-20.926 31.3233 72.6784 -0.617636 0.0331412 0.785766
-19.8745 32.3663 73.4773 -0.630125 0.0468251 0.774687
-19.1306 32.9107 74.0337 -0.640648 0.0647187 0.764966
-18.0675 33.4178 74.8826 -0.626741 0.0436019 0.778006
-17.1957 33.6663 75.5926 -0.641855 0.0317894 0.766166
-17.919 32.4685 75.0567 -0.626516 0.0264797 0.778748
-17.6767 31.5243 75.2587 -0.622747 0.00169141 0.782418
-17.8264 30.4646 75.1386 -0.622001 0.00220027 0.783005
-18.0258 29.4288 74.9878 -0.620105 0.0052478 0.784501
-18.3608 28.473 74.7033 -0.599051 -0.0371034 0.799821
-18.7877 27.4632 74.3376 -0.582379 -0.0377009 0.812043
-19.3455 26.5358 73.8935 -0.583359 -0.029109 0.811639
-20.3172 25.8413 73.149 -0.608596 -0.0278262 0.792986
-21.0744 26.5443 72.5874 -0.611395 -0.0203476 0.791051
-21.36 28.171 72.3809 -0.62393 -0.00457981 0.781467
-21.2405 29.3051 72.4783 -0.62428 0.000270852 0.7812
-20.8122 30.3196 72.807 -0.61438 0.0195249 0.788682
-20.09 31.2274 73.3347 -0.623365 0.0259844 0.781413
-19.0881 32.089 74.1248 -0.623886 0.0191645 0.78122
-18.2112 32.5495 74.8167 -0.6274 0.0442023 0.777441
-18.1262 32.5844 74.8831 -0.626686 0.044633 0.777992
-18.5433 31.6279 74.5626 -0.627359 0.00775483 0.778692
-18.4458 30.6025 74.6498 -0.616953 0.0057191 0.786972
-18.6864 29.3362 74.4662 -0.617331 0.00445477 0.786682
-19.3817 27.6577 73.9148 -0.609923 -0.0149215 0.79232
-19.9981 26.9366 73.4266 -0.610297 -0.0157965 0.792015
-20.6387 27.4589 72.9423 -0.611429 -0.0150733 0.791156
-20.6877 28.6303 72.9192 -0.618636 0.00291678 0.785632
-20.3393 29.8011 73.1793 -0.613442 0.00714056 0.789707
-19.7033 30.6247 73.6659 -0.623392 0.0153583 0.78167
-18.728 31.5116 74.418 -0.617041 0.0117065 0.786839
-18.615 31.5959 74.5052 -0.622275 0.0111211 0.782686
-19.1429 30.1239 74.1066 -0.614578 0.00409173 0.788845
-19.5755 28.5175 73.7819 -0.611099 -0.00435511 0.79147
-19.8592 28.7846 73.5601 -0.612314 0.00629218 0.79059
-19.4435 29.7512 73.8743 -0.613439 0.00512994 0.789723
-20.9276 18.2403 72.4121 -0.609844 -0.0323662 0.79186
-20.0355 17.4609 73.0654 -0.602759 -0.0305414 0.797294
-19.2781 16.7032 73.5928 -0.595278 -0.0425215 0.802393
-18.1966 15.5939 74.3077 -0.551109 -0.0226519 0.834125
-17.7331 14.0876 74.5586 -0.539488 -0.0350752 0.841255
-17.5199 13.0828 74.6465 -0.540678 -0.0432642 0.840115
-17.6938 11.0307 74.4262 -0.542986 -0.0470186 0.838414
-18.0069 9.89095 74.204 -0.542685 -0.0121257 0.839849
-18.6001 8.93863 73.8067 -0.542972 -0.0146297 0.839619
-19.4784 8.0871 73.1673 -0.585439 -0.0115641 0.810626
-20.3137 6.97136 72.5208 -0.608566 -0.0160394 0.793323
-20.5594 5.39166 72.3108 -0.603624 -0.0132532 0.797131
-20.0252 4.43063 72.6964 -0.596927 -0.00897528 0.802244
-19.1811 4.15133 73.3188 -0.595603 -0.00947593 0.803223
-18.0392 3.65375 74.1159 -0.565602 -0.0108264 0.824479
-16.9837 2.88247 74.7735 -0.51542 -0.0115773 0.856797
-15.9433 2.15544 75.3931 -0.513454 2.3896e-05 0.858115
-15.5278 1.17149 75.6435 -0.511664 0.00128629 0.859181
-14.9422 -0.069412 75.9732 -0.492448 -0.00803615 0.870292
-14.8998 -1.18322 75.9953 -0.489362 0.00195094 0.872078
-14.8937 -2.39661 76.0029 -0.485486 0.00777475 0.874205
-15.1211 -3.67616 75.8958 -0.485414 0.0196974 0.87405
-15.6176 -4.77211 75.6568 -0.492169 0.0325348 0.869804
-16.1936 -5.78859 75.3264 -0.522092 0.0279754 0.852416
-16.8439 -6.57225 74.9272 -0.564524 0.0122213 0.825273
-17.662 -7.02257 74.3668 -0.569175 0.0217359 0.821904
-18.4186 -7.50529 73.8636 -0.565507 0.0262183 0.824326
-19.9127 -7.62913 72.8129 -0.586295 0.00591691 0.810066
-20.8068 -7.3679 72.1242 -0.611032 0.0161499 0.791441
-21.5903 -7.29594 71.5095 -0.622995 0.011668 0.782111
-22.5154 -6.2483 70.7493 -0.627424 0.00740899 0.778643
-23.3031 -5.26485 70.0911 -0.634905 0.0104211 0.77252
-23.9785 -4.27519 69.5303 -0.627422 -0.0030272 0.778623
-24.3523 -2.96674 69.2247 -0.626218 -0.00109214 0.779647
-24.5858 -1.88297 69.0319 -0.666457 -0.00389523 0.745533
-24.4561 -0.797136 69.1368 -0.643646 0.00618096 0.765159
-24.1478 0.541326 69.3837 -0.63645 0.00122483 0.771305
-23.779 1.4172 69.6923 -0.63491 -0.0113238 0.772503
-23.1894 2.40582 70.1978 -0.638318 -0.0178407 0.769566
-22.6908 3.45368 70.6291 -0.625383 -0.0092713 0.780206
-22.7978 5.3635 70.5663 -0.624737 -0.013368 0.780705
-23.2707 6.88824 70.2265 -0.623357 -0.0193987 0.781697
-23.9313 7.39863 69.6784 -0.642679 -0.0210581 0.765818
-24.7625 8.2532 69.0007 -0.654362 -0.0245786 0.755774
-25.4964 9.52323 68.4004 -0.65696 -0.0219576 0.753604
-25.8969 10.5743 68.0775 -0.662382 -0.0271277 0.748675
-26.028 12.1672 68.0152 -0.655608 -0.0279271 0.754559
-25.6213 13.9312 68.4456 -0.648375 -0.0245227 0.760826
-25.2425 14.8979 68.8025 -0.637345 -0.0334893 0.769845
-24.7285 15.7468 69.2677 -0.646579 -0.0340893 0.762033
-24.0826 16.3575 69.8366 -0.646573 -0.0233448 0.762495
-23.2965 16.9468 70.51 -0.640162 -0.0164853 0.768063
-22.5439 17.6611 71.135 -0.613707 -0.0335653 0.788819
-21.7273 17.8635 71.7774 -0.6122 -0.03347 0.789994
-21.115 18.2619 72.2687 -0.611007 -0.0330163 0.790935
-21.4029 17.1986 72.0006 -0.611355 -0.0339053 0.79063
-20.5148 16.9148 72.6738 -0.609005 -0.0344312 0.792418
-19.5932 16.0318 73.326 -0.595492 -0.0340852 0.802638
-18.9754 15.3378 73.7531 -0.588901 -0.0385762 0.807284
-18.3471 13.7859 74.1489 -0.562603 -0.0278356 0.825837
-18.1637 12.8027 74.2175 -0.541266 -0.0437162 0.839714
-18.2028 11.7834 74.1387 -0.542986 -0.0470186 0.838414
-18.4368 10.8307 73.9295 -0.548295 -0.0279207 0.835533
-18.8778 9.83358 73.631 -0.550868 -0.00623944 0.834569
-19.5459 8.93942 73.1285 -0.585004 -0.0298524 0.810481
-20.2092 8.36768 72.64 -0.597661 -0.0153006 0.801462
-20.7932 7.44154 72.1663 -0.608231 -0.0223065 0.793447
-21.1585 6.27982 71.8635 -0.610325 -0.0120354 0.792055
-21.1172 5.20862 71.8772 -0.611675 -0.00963904 0.791041
-20.2397 3.70272 72.5245 -0.600408 -0.0125021 0.799596
-19.4463 3.40795 73.1141 -0.587449 -0.0139761 0.809066
-18.6312 3.10489 73.6861 -0.57644 -0.0322613 0.816494
-17.3738 2.25734 74.5394 -0.544277 -0.0152926 0.837791
-16.564 1.49842 75.0217 -0.513553 0.000201714 0.858056
-15.9766 0.508241 75.3752 -0.515051 0.000102019 0.857157
-15.5684 -1.36049 75.6195 -0.491782 0.00385309 0.870709
-15.6123 -2.52486 75.605 -0.485192 0.00821401 0.874369
-16.059 -4.11095 75.3738 -0.521471 0.00608433 0.852562
-16.5462 -5.00827 75.0807 -0.55631 0.0290671 0.830441
-17.3139 -5.9431 74.5864 -0.57175 0.0205354 0.82017
-18.0852 -6.41092 74.0576 -0.569175 0.0217359 0.821904
-18.9936 -6.75046 73.4447 -0.565911 0.0262521 0.824048
-20.4187 -6.69004 72.4092 -0.607928 0.0107205 0.793883
-21.2523 -6.37989 71.7667 -0.617939 0.0058025 0.786139
-22.018 -5.72295 71.1452 -0.626203 0.00801499 0.779617
-22.9614 -4.58408 70.363 -0.634884 0.0100646 0.772542
-23.6077 -3.34065 69.8224 -0.627183 0.00227047 0.77886
-23.9434 -1.38667 69.5595 -0.630349 0.000260779 0.776293
-23.7713 -0.275337 69.6916 -0.634816 0.00186076 0.772647
-23.4259 0.656196 69.9788 -0.637456 -0.00130025 0.770486
-22.9536 1.54495 70.3719 -0.633484 -0.0162721 0.773583
-22.4447 2.33446 70.8074 -0.629967 -0.0191684 0.776369
-22.0365 3.33305 71.1441 -0.619547 -0.00191481 0.784953
-21.9346 4.3794 71.2383 -0.618817 -0.011717 0.785448
-22.1473 5.64128 71.088 -0.613184 -0.011499 0.789852
-22.5175 6.70966 70.8136 -0.615168 -0.0109088 0.78832
-23.3059 7.90336 70.2094 -0.629617 -0.00483549 0.776887
-24.003 8.56917 69.6412 -0.637453 -0.00592226 0.770466
-24.7928 9.5687 69.003 -0.641982 -0.0121611 0.766623
-25.1449 10.4858 68.72 -0.645043 -0.0228784 0.763696
-25.3501 11.9279 68.5984 -0.656446 -0.0215172 0.754066
-25.2316 13.1727 68.752 -0.655428 -0.0332454 0.754524
-24.8874 14.1419 69.0635 -0.640141 -0.0259785 0.767764
-24.3756 15.075 69.5281 -0.64439 -0.0422337 0.76353
-23.5298 15.9181 70.2881 -0.637008 -0.0463132 0.769406
-22.7924 16.4551 70.8892 -0.614 -0.0335075 0.788594
-21.4358 17.1957 71.9749 -0.611957 -0.0338811 0.790165
-21.0358 16.2767 72.246 -0.612636 -0.0160572 0.790202
-19.9245 15.3491 73.0522 -0.586208 -0.0285492 0.809658
-19.2225 14.3812 73.5277 -0.589573 -0.0297857 0.807121
-18.8591 12.8725 73.7548 -0.593941 -0.022206 0.804172
-18.9046 11.6798 73.6736 -0.54681 -0.0490271 0.83582
-19.1956 10.7219 73.427 -0.549295 -0.0273123 0.834896
-19.7881 9.73304 72.9829 -0.584703 -0.030047 0.810691
-20.5064 8.97415 72.4294 -0.606301 -0.0191328 0.794989
-21.0803 8.2036 71.9668 -0.609756 -0.021403 0.7923
-21.5607 7.19645 71.57 -0.612482 -0.0231127 0.790137
-22.3523 7.85788 70.9717 -0.616144 -0.0225307 0.78731
-23.1311 8.68262 70.3538 -0.630483 -0.00184618 0.7762
-24.0396 9.66491 69.6287 -0.631383 -0.0139302 0.775346
-24.4931 10.5263 69.2679 -0.637247 -0.0218801 0.770254
-24.7284 12.3321 69.151 -0.647709 -0.027817 0.76127
-24.477 13.4739 69.3878 -0.637368 -0.0177684 0.770353
-24.0619 14.3243 69.752 -0.637484 -0.0457099 0.769044
-23.2594 15.2251 70.463 -0.630347 -0.0500624 0.774697
-22.4313 15.8333 71.1436 -0.613478 -0.0337549 0.78899
-21.7606 16.2152 71.6827 -0.619443 -0.020809 0.784703
-21.608 15.3383 71.7766 -0.62622 -0.0251401 0.779241
-22.7107 14.7637 70.8806 -0.622337 -0.0414668 0.781527
-23.3866 14.0649 70.2932 -0.632644 -0.0256613 0.774017
-24.0388 12.6482 69.7212 -0.62918 -0.0226352 0.776928
-24.0726 11.4886 69.6535 -0.628153 -0.0282556 0.777577
-23.4396 9.9891 70.124 -0.631903 -0.0158316 0.774885
-22.7031 9.18887 70.7087 -0.632106 -0.0146323 0.774744
-22.0403 8.4878 71.2328 -0.614015 -0.0202009 0.789031
-20.8177 9.58538 72.2065 -0.609627 -0.0213343 0.792401
-20.2188 10.275 72.6746 -0.602771 -0.0175272 0.797721
-19.7462 11.1288 73.0508 -0.600809 -0.01657 0.799216
-19.4853 12.369 73.2713 -0.59923 -0.0175417 0.800384
-19.5745 13.3846 73.2364 -0.59863 -0.0260472 0.800602
-20.0203 14.3429 72.9472 -0.58578 -0.0316243 0.809848
-20.7267 15.1023 72.4618 -0.600634 -0.0228554 0.799028
-21.4052 15.4159 71.9421 -0.619443 -0.020809 0.784703
-21.6966 14.4939 71.6786 -0.62647 -0.0245415 0.779059
-22.7216 13.7825 70.8274 -0.630757 -0.0268781 0.77551
-23.3313 12.821 70.2974 -0.63036 -0.0236236 0.775936
-23.4414 11.7574 70.173 -0.629798 -0.0267144 0.776294
-23.1395 10.6976 70.3845 -0.631886 -0.0252669 0.77465
-22.3325 9.74958 71.0218 -0.627995 -0.014145 0.778068
-21.3658 9.95564 71.7945 -0.615418 -0.0165111 0.787982
-20.5395 10.9901 72.4479 -0.603245 -0.0178078 0.797357
-20.1739 12.0445 72.7486 -0.601442 -0.0174571 0.798722
-20.2685 13.3454 72.725 -0.586031 -0.034598 0.80955
-20.9776 14.3097 72.2494 -0.596642 -0.0369552 0.801583
-21.1583 14.3718 72.1079 -0.626712 -0.0255209 0.778832
-21.2989 13.5825 71.9678 -0.61566 -0.033793 0.787133
-20.7498 12.3768 72.3219 -0.601747 -0.0309707 0.798004
-21.0398 11.4162 72.08 -0.601555 -0.0192512 0.798599
-21.7951 10.5423 71.465 -0.622358 -0.0274016 0.782251
-22.7897 11.4683 70.695 -0.630402 -0.0244705 0.77588
-22.7797 12.4869 70.7341 -0.628844 -0.0256586 0.777106
-22.1044 13.4183 71.3138 -0.628824 -0.0277144 0.777053
-21.4418 13.6096 71.8537 -0.626742 -0.0266636 0.778771
-21.6082 12.7805 71.6915 -0.615822 -0.0336181 0.787017
-22.0575 11.4699 71.287 -0.623651 -0.0266867 0.781247
-22.0527 12.4687 71.3217 -0.628783 -0.0256525 0.777155
-21.8358 12.7356 71.5068 -0.627785 -0.0271393 0.777912
-21.2831 3.4036 71.7362 -0.614603 -0.00890041 0.788766
-20.524 3.03749 72.3024 -0.600185 -0.00769398 0.799824
-19.7602 2.73514 72.8727 -0.586379 -0.0178564 0.8096
-18.5363 2.18554 73.7152 -0.579029 -0.0338379 0.814604
-17.5842 1.48268 74.3617 -0.576493 -0.0315452 0.816493
-16.6591 0.295067 74.9639 -0.531541 -0.0115529 0.846672
-16.284 -0.919058 75.1951 -0.556023 0.000570987 0.83106
-16.2634 -2.10002 75.2295 -0.555146 0.0120124 0.83166
-16.4297 -3.13588 75.1251 -0.551986 0.00411874 0.833843
-16.7863 -4.06458 74.894 -0.549448 0.0152266 0.835296
-17.3126 -4.93302 74.5657 -0.563885 0.0182034 0.825605
-18.4853 -5.75605 73.7635 -0.569427 0.0211278 0.821751
-19.568 -6.04304 73.0288 -0.572909 0.0276342 0.8191
-20.5655 -5.82077 72.2928 -0.608687 0.00270043 0.793405
-21.4325 -5.31484 71.6094 -0.625077 0.00948187 0.780505
-22.1185 -4.58531 71.0611 -0.632097 0.000609276 0.774805
-22.9301 -3.24307 70.3739 -0.640661 0.00527786 0.767805
-23.2862 -2.0344 70.0868 -0.628435 -0.00430683 0.77785
-23.2433 -0.847076 70.1276 -0.630575 0.000945714 0.776106
-22.9178 0.192052 70.3934 -0.627309 -0.00242197 0.778766
-22.3821 1.16491 70.8335 -0.633706 -0.0146091 0.773436
-21.6747 2.4069 71.4274 -0.617012 -0.0090353 0.786714
-21.2835 3.39378 71.7357 -0.618055 -0.0063713 0.786089
-20.7069 2.29464 72.158 -0.601229 -0.00878615 0.799027
-21.4622 1.42373 71.577 -0.603046 -0.0100984 0.797642
-22.0015 0.526711 71.133 -0.630616 -0.00846681 0.776017
-22.6453 -1.16508 70.6173 -0.633543 0.00140369 0.773679
-22.5462 -2.35342 70.6925 -0.636022 -0.00430637 0.771659
-22.1941 -3.28258 70.9884 -0.640585 0.00443307 0.767874
-21.5878 -4.15406 71.4869 -0.619533 0.00722745 0.784851
-20.9453 -4.76377 71.9963 -0.614669 0.00668883 0.788614
-20.0919 -5.16572 72.6224 -0.580025 0.030691 0.81402
-18.8278 -5.0669 73.5085 -0.569548 0.0210559 0.821672
-17.7761 -4.355 74.2352 -0.574931 0.00692048 0.818172
-17.1209 -3.09479 74.6671 -0.553994 0.0075932 0.832479
-16.9375 -2.08299 74.7779 -0.556285 0.00928971 0.83094
-16.971 -0.960495 74.7397 -0.554443 0.0133203 0.832113
-17.3157 0.0930035 74.5284 -0.548135 -0.0208374 0.83613
-17.931 0.831588 74.1009 -0.577244 -0.00299205 0.816567
-18.7754 1.46842 73.5156 -0.574617 -0.0312449 0.817804
-19.7752 1.95003 72.8358 -0.573873 -0.0277586 0.818472
-20.1012 2.05457 72.6101 -0.587724 -0.0183115 0.808645
-20.3166 1.30084 72.4417 -0.587858 -0.000516199 0.808641
-19.4321 0.988208 73.0567 -0.567345 0.00450913 0.823467
-18.3013 0.199893 73.8368 -0.571369 0.000454461 0.820653
-17.7008 -0.743015 74.2567 -0.56205 -0.0117924 0.826782
-17.582 -2.14845 74.3473 -0.55662 0.0101517 0.830704
-17.8733 -3.18288 74.1625 -0.566431 0.00298734 0.824063
-19.0485 -4.31754 73.3431 -0.574836 -0.00359543 0.81823
-19.8866 -4.39244 72.7517 -0.575741 0.00406151 0.817622
-21.139 -3.64533 71.8267 -0.61104 0.0168061 0.791386
-21.6794 -2.86985 71.4127 -0.603041 0.00122122 0.797709
-22.0113 -1.62836 71.1374 -0.633508 0.00173621 0.773704
-21.8491 -0.65103 71.2599 -0.630873 0.00631494 0.77586
-21.1882 0.600835 71.772 -0.604515 -0.00966078 0.796529
-20.7157 1.0965 72.1361 -0.603999 -0.00910582 0.796929
-20.321 0.254717 72.4289 -0.60557 -0.0068011 0.795763
-20.9992 -0.392382 71.9115 -0.600886 0.0065799 0.799307
-21.3473 -1.68802 71.6601 -0.601006 0.00561721 0.799225
-20.9934 -2.70562 71.9312 -0.602845 0.00146246 0.797857
-19.9457 -3.52808 72.7056 -0.578867 0.000952591 0.815407
-19.0988 -3.45746 73.3104 -0.580754 -0.00287844 0.814074
-18.4392 -2.79976 73.7722 -0.566172 0.00292808 0.824245
-18.2209 -1.53915 73.9056 -0.563708 0.0109061 0.825901
-18.6174 -0.482869 73.6232 -0.565298 0.00375336 0.824878
-19.32 0.0820407 73.1386 -0.567518 0.00347414 0.823353
-20.0979 0.406031 72.6 -0.586896 -0.00129641 0.809311
