-2.28139 -42.9695 86.7873 -0.183766 0.156357 0.970453
-0.95116 -42.922 86.9269 -0.0919859 0.0966018 0.990904
0.270304 -42.5787 87.0208 -0.0669172 0.0714317 0.994567
1.36366 -42.3026 86.9752 0.105951 0.174711 0.978903
2.4143 -42.1958 86.8409 0.154641 0.172855 0.97168
3.36219 -43.0133 86.7801 0.204325 0.160432 0.965665
4.24087 -42.5558 86.5177 0.243367 0.108997 0.961353
3.36554 -43.0224 86.7807 0.230117 0.113684 0.9665
2.19419 -42.9095 86.9909 0.13455 0.154531 0.978317
1.10387 -43.0665 87.0769 -0.033105 0.056103 0.997876
0.0393259 -43.1341 87.0447 -0.0674842 0.0694787 0.994669
-1.88663 -42.9655 86.8591 -0.0813683 0.0986567 0.991777
-1.90999 -42.9668 86.8572 -0.134838 0.12741 0.980882
-2.04677 -43.7211 86.919 -0.0872818 0.0908403 0.992015
-3.07222 -43.7373 86.6804 -0.280739 0.0778753 0.956619
-4.50631 -43.8247 86.2254 -0.363127 0.0889859 0.927297
-5.52683 -43.8536 85.8095 -0.381051 0.0774554 0.9213
-6.55645 -43.6266 85.2906 -0.469667 0.103876 0.876454
-6.37265 -43.0006 85.3054 -0.454719 0.112498 0.883499
-5.51336 -42.8583 85.7289 -0.416771 0.0953946 0.902872
-4.53183 -42.6849 86.093 -0.350166 0.101376 0.931185
-3.53305 -42.4543 86.4409 -0.314411 0.0894378 0.944315
-2.50199 -42.253 86.6314 -0.183125 0.154376 0.970893
-1.47681 -42.1051 86.7994 -0.128893 0.130884 0.981207
-0.422968 -41.8568 86.8877 -0.102077 0.102615 0.98947
0.612105 -41.6053 86.9383 0.0605694 0.166556 0.982786
2.10025 -41.526 86.7535 0.114916 0.165121 0.979441
3.37116 -41.6962 86.5737 0.170182 0.119872 0.978088
5.02617 -42.1504 86.2153 0.290948 0.139304 0.945729
6.32835 -42.5548 85.8333 0.41167 0.138331 0.900751
7.44804 -42.9667 85.3865 0.414857 0.108052 0.903047
7.33404 -43.5572 85.5059 0.445313 0.0850882 0.890711
5.99159 -43.6886 86.1539 0.41546 0.128081 0.900542
4.97788 -43.6924 86.471 0.245631 0.10665 0.963416
3.31151 -43.7 86.8734 0.227348 0.114185 0.967091
2.02881 -43.7185 87.1321 0.123906 0.0961271 0.986362
0.906204 -43.7681 87.1098 -0.0402991 0.0876945 0.9948
-0.284631 -43.7888 87.0684 -0.0674842 0.0694787 0.994669
-1.41891 -43.7124 86.9711 -0.0747446 0.0990463 0.992268
-1.57833 -43.696 86.9571 -0.0813683 0.0986567 0.991777
-1.44194 -44.4097 87.0275 -0.0798542 0.0781891 0.993729
-3.18035 -44.4541 86.7091 -0.281602 0.0820764 0.956014
-4.14183 -44.4656 86.4253 -0.3333 0.0557461 0.940068
-5.1748 -44.5081 86.0054 -0.37839 0.0480705 0.924397
-6.15685 -44.4632 85.5955 -0.405125 0.0386005 0.913056
-7.07528 -44.3172 85.0742 -0.486242 0.0928933 0.868873
-8.11975 -43.3846 84.3677 -0.536483 0.0922658 0.837834
-8.15964 -42.2864 84.2105 -0.510291 0.0871175 0.855378
-7.0347 -42.1011 84.8729 -0.512948 0.0708625 0.85549
-6.09408 -42.0001 85.3511 -0.44837 0.0709082 0.891028
-4.74293 -41.8974 85.9277 -0.351047 0.101035 0.930891
-3.78978 -41.7176 86.2658 -0.312328 0.127602 0.940267
-2.82757 -41.5496 86.4836 -0.180455 0.11372 0.976987
-1.1648 -41.253 86.7471 -0.138461 0.109269 0.983781
-0.137406 -41.0099 86.8294 -0.102077 0.102615 0.98947
1.53181 -40.7774 86.706 0.111794 0.154315 0.981675
2.57527 -40.7976 86.5827 0.136985 0.150001 0.979008
4.29967 -41.1235 86.3404 0.238649 0.109578 0.962398
5.9074 -41.6838 85.8779 0.292241 0.132148 0.946508
7.1665 -42.1228 85.4082 0.390299 0.107198 0.914426
8.28119 -42.5946 84.9096 0.478367 0.0746 0.874985
9.4263 -43.3816 84.3187 0.525465 0.0676947 0.847392
8.80035 -44.2342 84.7558 0.505599 0.0668096 0.860167
7.61651 -44.4038 85.4272 0.476206 0.0758374 0.876049
6.62652 -44.3967 85.9443 0.436292 0.0739612 0.896401
5.03459 -44.3932 86.5323 0.247305 0.0960055 0.964067
4.01892 -44.3769 86.7825 0.233483 0.110338 0.966078
2.51802 -44.4276 87.1371 0.164755 0.0786698 0.981069
1.37886 -44.4464 87.214 -0.0481269 0.118758 0.991756
-0.0402094 -44.4542 87.1447 -0.0664236 0.102877 0.992207
-0.891865 -44.4435 87.0723 -0.0797683 0.0829366 0.993342
-0.868884 -45.1544 87.1444 -0.0850015 0.108397 0.990453
-1.87159 -45.1292 87.0457 -0.0942844 0.0897916 0.991312
-2.86061 -45.1491 86.8629 -0.286259 0.0735279 0.955278
-4.01403 -45.1591 86.5117 -0.3333 0.0557461 0.940068
-5.72453 -45.1844 85.8152 -0.381052 0.0494795 0.923224
-6.7349 -45.1373 85.332 -0.487778 0.0689541 0.87024
-7.64208 -44.9873 84.8108 -0.512457 0.0567405 0.856318
-8.55622 -44.2175 84.1434 -0.570283 0.0760506 0.817917
-8.88075 -43.2058 83.8161 -0.561656 0.0713748 0.824125
-8.90867 -41.535 83.6602 -0.538947 0.0867011 0.837686
-7.68777 -41.3845 84.416 -0.536721 0.0991982 0.837908
-6.81013 -41.3573 84.9403 -0.477598 0.0756096 0.874622
-5.88319 -41.2846 85.3724 -0.399804 0.120158 0.908691
-4.88898 -41.1638 85.7937 -0.375019 0.109764 0.920041
-3.85589 -40.9765 86.1245 -0.277897 0.157075 0.947682
-2.85126 -40.7914 86.3887 -0.230396 0.137158 0.961874
-1.40966 -40.5307 86.6171 -0.163049 0.122671 0.978937
0.203361 -40.1593 86.6803 0.0142409 0.167079 0.985817
1.22265 -40.0702 86.6287 0.110083 0.154845 0.981785
2.62669 -40.0407 86.4597 0.137371 0.149524 0.979029
4.03599 -40.2878 86.2759 0.162094 0.164857 0.972719
5.19414 -40.6624 85.9906 0.322564 0.127377 0.937935
6.66393 -41.1925 85.5102 0.377169 0.119368 0.918417
7.5501 -41.5183 85.1613 0.421654 0.113351 0.899423
8.95681 -42.1562 84.502 0.515232 0.0873734 0.851401
9.75431 -42.6242 84.0256 0.552676 0.0903971 0.828435
10.467 -43.3863 83.5997 0.592562 0.0706967 0.802401
10.2044 -44.3966 83.877 0.588773 0.0665876 0.805549
9.38133 -44.8884 84.4611 0.53598 0.0829822 0.840138
8.43855 -45.0585 85.0279 0.49748 0.0783318 0.863788
7.48536 -45.1234 85.559 0.469214 0.0729213 0.880004
6.56292 -45.1292 86.0329 0.407867 0.0553956 0.911148
5.13021 -45.1433 86.5737 0.249539 0.0692906 0.965728
3.91858 -45.1109 86.8823 0.249778 0.0869475 0.964385
2.19381 -45.1637 87.2046 0.100308 0.0458612 0.993798
0.622442 -45.1554 87.2548 -0.0494212 0.0924879 0.994449
0.119852 -45.1635 87.2275 -0.0687417 0.0997064 0.992457
0.221689 -45.8865 87.296 -0.0554561 0.0864826 0.994709
1.31945 -45.9011 87.3041 0.105696 0.00412072 0.994365
2.45601 -45.8737 87.1902 0.108968 0.00802199 0.993928
3.68151 -45.8407 87.0087 0.202923 0.044937 0.97623
4.74446 -45.8537 86.7254 0.263403 0.0730498 0.961916
5.93055 -45.8412 86.3426 0.404782 0.0615262 0.912169
7.22734 -45.8325 85.7404 0.437499 0.0621061 0.896832
8.39071 -45.8141 85.1178 0.481176 0.0687687 0.873922
9.86138 -45.5185 84.2173 0.551215 0.0750698 0.830528
10.6422 -45.0048 83.6072 0.588773 0.0665876 0.805549
11.2731 -43.8849 83.0432 0.599853 0.0706188 0.796984
11.0814 -42.8169 83.0891 0.599585 0.0772069 0.796578
10.305 -42.1402 83.5983 0.560776 0.089165 0.82306
9.21784 -41.5371 84.2532 0.549307 0.0875768 0.830913
7.88631 -40.9077 84.9303 0.434877 0.0801344 0.896913
6.8714 -40.5169 85.3355 0.392489 0.118155 0.912009
5.27648 -39.915 85.8605 0.315959 0.152065 0.936207
4.17429 -39.5456 86.1127 0.171505 0.180617 0.968485
2.94495 -39.3119 86.2866 0.176269 0.171322 0.969261
1.80321 -39.2519 86.4246 0.109175 0.170241 0.979335
0.326538 -39.4172 86.5565 0.0180074 0.160197 0.986919
-0.704764 -39.6065 86.5847 -0.0716448 0.21812 0.972608
-1.891 -39.867 86.4388 -0.18437 0.168341 0.968329
-3.50794 -40.1536 86.1118 -0.272937 0.083448 0.958402
-4.53498 -40.3512 85.8352 -0.328938 0.113822 0.935155
-5.59475 -40.5361 85.3992 -0.400017 0.129736 0.907279
-6.67219 -40.6303 84.9373 -0.417047 0.14036 0.897713
-7.58477 -40.6678 84.3972 -0.528874 0.0996828 0.842774
-8.67722 -40.6399 83.7 -0.528228 0.0992897 0.843277
-9.81956 -41.0946 83.0036 -0.553518 0.0933519 0.827574
-9.65562 -42.4549 83.244 -0.567584 0.0681575 0.82032
-9.35725 -43.9614 83.5568 -0.561656 0.0713748 0.824125
-8.89822 -45.1031 83.9818 -0.573906 0.0720237 0.815747
-8.22284 -45.6442 84.473 -0.536473 0.0388362 0.843023
-7.31823 -45.8348 85.0578 -0.512617 0.052517 0.856456
-6.4249 -45.8769 85.5085 -0.429582 0.0228507 0.902733
-5.20474 -45.89 86.0638 -0.380417 0.0476612 0.923584
-4.151 -45.8596 86.4949 -0.345854 0.0414027 0.936786
-3.1316 -45.8475 86.8279 -0.287679 0.0584664 0.955909
-1.70822 -45.8474 87.1397 -0.123933 0.0716782 0.988896
-0.3571 -45.9023 87.2643 -0.0713059 0.0888516 0.993396
-0.0504928 -45.9049 87.2825 -0.0567879 0.0856654 0.994703
0.121488 -46.6142 87.3456 -0.0322615 0.0575196 0.997701
1.23871 -46.6094 87.3193 0.110955 0.00865358 0.993788
2.59238 -46.5813 87.1767 0.104965 -0.00293341 0.994448
3.62329 -46.5533 87.0289 0.144142 0.0286829 0.989041
4.76062 -46.5634 86.7754 0.280038 0.066312 0.957509
5.72195 -46.5272 86.4957 0.34348 0.0686405 0.933828
6.64564 -46.5463 86.0799 0.418732 0.0784674 0.904666
7.84866 -46.5493 85.4826 0.485731 0.0795484 0.870481
8.72272 -46.5417 84.9922 0.486146 0.0745362 0.870671
9.86641 -46.3089 84.2695 0.579248 0.0570132 0.813069
11.0776 -45.6039 83.3328 0.593658 0.0618515 0.802315
11.7075 -44.7478 82.7726 0.638063 0.0587742 0.767738
11.9596 -43.6189 82.4673 0.648331 0.0633139 0.758702
11.4771 -42.2377 82.735 0.600768 0.0779523 0.795613
10.6741 -41.5361 83.2726 0.591448 0.0811059 0.80217
9.35425 -40.829 84.1001 0.548142 0.0751051 0.833005
8.43856 -40.3898 84.6162 0.477111 0.0909446 0.872767
7.06539 -39.8531 85.1728 0.371891 0.113609 0.921298
6.08031 -39.4657 85.5162 0.315959 0.152065 0.936207
4.97342 -39.0352 85.7937 0.294614 0.174737 0.939504
3.89981 -38.7031 86.0053 0.176532 0.17115 0.969254
2.66315 -38.5139 86.2057 0.181072 0.165165 0.969499
1.04788 -38.5794 86.3922 0.0669739 0.214218 0.972372
-0.0255145 -38.722 86.4087 -0.0317993 0.223365 0.974215
-1.48822 -39.0079 86.3633 -0.109659 0.227062 0.967687
-3.24236 -39.3414 86.0992 -0.186249 0.16449 0.968554
-4.26872 -39.5443 85.8214 -0.383737 0.143497 0.912225
-6.10492 -39.8554 85.0766 -0.400239 0.129943 0.907151
-7.22857 -39.941 84.5152 -0.51413 0.128494 0.848005
-8.09732 -39.9287 83.9817 -0.526749 0.11623 0.841792
-8.95779 -39.8609 83.4281 -0.537144 0.105048 0.836901
-10.0044 -39.8534 82.7323 -0.578982 0.0962655 0.809619
-10.4458 -41.3835 82.578 -0.585198 0.0783224 0.807095
-10.3161 -42.4174 82.7675 -0.586154 0.0702636 0.807121
-10.0704 -43.6318 83.035 -0.578261 0.0526101 0.814151
-9.83678 -44.6828 83.2883 -0.571574 0.0751962 0.817094
-9.19944 -45.9966 83.8505 -0.56936 0.0758632 0.818578
-8.33873 -46.4796 84.4626 -0.533702 0.0879565 0.841086
-7.03905 -46.5846 85.2613 -0.458468 0.063291 0.88574
-5.69939 -46.5925 85.892 -0.391952 0.0479328 0.9178
-4.57823 -46.5723 86.3475 -0.384909 0.0118057 0.922878
-3.38794 -46.5641 86.7909 -0.305004 0.0558033 0.950448
-1.61098 -46.5612 87.1788 -0.134316 0.032872 0.990361
-0.597082 -46.6023 87.3094 -0.10534 0.0623944 0.991787
-0.553574 -46.6035 87.3126 -0.053056 0.0720178 0.995893
-0.797951 -47.3043 87.336 -0.101549 0.0666742 0.991507
0.265103 -47.324 87.3877 0.00988211 0.0281819 0.998815
1.42777 -47.3189 87.3042 0.109805 0.0082969 0.993918
3.24734 -47.2719 87.1043 0.112729 0.0422452 0.992724
4.25298 -47.2498 86.9702 0.187782 0.0209551 0.979973
5.73692 -47.2362 86.5077 0.339126 0.0107318 0.9399
6.67867 -47.2595 86.1263 0.402158 0.0410628 0.913326
8.36124 -47.2747 85.2627 0.485639 0.0790009 0.870582
9.30595 -47.24 84.7017 0.546097 0.0502692 0.83619
10.1312 -47.0264 84.1159 0.594753 0.0416942 0.802826
11.2566 -46.3952 83.2501 0.608139 0.0378467 0.792739
11.9475 -45.687 82.6444 0.635747 0.0533957 0.770046
12.5071 -44.4122 82.0725 0.647022 0.0684655 0.759391
12.5619 -43.3627 81.9308 0.64852 0.0646334 0.758435
12.3739 -42.3614 82.0125 0.652025 0.0582371 0.755956
11.8672 -41.5813 82.3771 0.624784 0.0814528 0.775923
11.0948 -40.9707 82.9029 0.599386 0.0744056 0.796995
10.2996 -40.4896 83.4298 0.583132 0.0878598 0.807613
9.07879 -39.9373 84.1701 0.517571 0.104234 0.849267
8.15844 -39.5284 84.6798 0.474078 0.0895579 0.874379
7.10677 -39.1314 85.0498 0.3713 0.171011 0.912628
6.17243 -38.7227 85.3573 0.337962 0.162527 0.9261
5.23401 -38.3474 85.5866 0.292288 0.170287 0.941047
3.63468 -37.8735 85.8984 0.209912 0.234861 0.949092
2.54735 -37.7513 86.0958 0.141829 0.165809 0.975148
1.08388 -37.8493 86.1893 0.0304501 0.266242 0.963425
-0.0839082 -37.9925 86.2307 -0.014726 0.268651 0.963095
-1.09277 -38.1906 86.2163 -0.0889533 0.238505 0.966772
-2.27233 -38.4495 86.1166 -0.174853 0.171178 0.969568
-3.89175 -38.6873 85.8398 -0.300545 0.186274 0.931343
-5.49602 -39.0581 85.2275 -0.392488 0.139446 0.909077
-6.44841 -39.1806 84.7991 -0.431835 0.154358 0.888643
-7.54519 -39.2261 84.2083 -0.505445 0.152037 0.849056
-8.72923 -39.1328 83.4719 -0.519585 0.128031 0.844772
-9.69075 -39.0436 82.8546 -0.557722 0.100223 0.823653
-10.7469 -39.1436 82.0896 -0.608777 0.111341 0.785185
-11.186 -40.1763 81.8608 -0.635391 0.0881334 0.767138
-11.1259 -41.1806 82.0266 -0.641463 0.0819461 0.762648
-10.9341 -42.3001 82.3031 -0.620456 0.0732716 0.779826
-10.7302 -43.3702 82.5439 -0.589527 0.05899 0.805534
-10.5517 -44.3702 82.7553 -0.577227 0.0785193 0.812791
-10.3173 -45.3919 83.0177 -0.572166 0.0763915 0.816563
-9.97262 -46.2972 83.3414 -0.569289 0.0778994 0.818439
-8.76825 -47.1826 84.2522 -0.561401 0.0717588 0.824426
-7.63431 -47.2983 84.9675 -0.487387 0.0473419 0.871902
-6.2094 -47.3033 85.7113 -0.392554 0.0483783 0.917502
-5.22631 -47.2944 86.0932 -0.361959 0.0232813 0.931903
-4.25531 -47.2648 86.4884 -0.356166 -0.00414787 0.934411
-3.17352 -47.2711 86.895 -0.31636 0.0251051 0.947245
-1.98269 -47.2701 87.1493 -0.150269 0.0447754 0.987531
-1.22923 -47.2895 87.2712 -0.151822 0.0684144 0.985945
-1.48092 -47.9964 87.2713 -0.157333 0.055492 0.985985
-2.66637 -47.9713 87.0688 -0.19972 -0.00809411 0.979535
-3.80512 -47.962 86.6599 -0.357714 0.0834518 0.930095
-4.76493 -47.9767 86.2894 -0.372256 0.0792929 0.924628
-5.74312 -48.0049 85.913 -0.359763 0.0540118 0.931479
-6.71121 -48.0215 85.5259 -0.454754 0.0515839 0.8882
-8.22105 -48.0047 84.6851 -0.515004 0.0585661 0.854365
-9.09967 -47.8968 84.087 -0.561535 0.0531901 0.825741
-10.1589 -47.2754 83.305 -0.604796 0.0578995 0.792812
-10.7669 -46.1342 82.7382 -0.656422 0.0534945 0.752081
-11.0188 -45.0675 82.4436 -0.674752 0.0324096 0.737331
-11.2182 -43.9712 82.2048 -0.673268 0.0407426 0.738275
-11.4213 -42.8605 81.9378 -0.652903 0.073426 0.753873
-11.6102 -41.8246 81.6722 -0.652122 0.0728381 0.754607
-11.8374 -40.2773 81.3266 -0.651833 0.0726342 0.754876
-11.7355 -39.1943 81.2893 -0.610381 0.0871438 0.7873
-11.0597 -38.3661 81.7341 -0.615422 0.111524 0.779705
-10.1598 -38.2256 82.3805 -0.590044 0.130089 0.796822
-9.06979 -38.3426 83.1417 -0.526516 0.130357 0.840105
-8.21275 -38.4525 83.6861 -0.514002 0.129485 0.847944
-6.98474 -38.496 84.4044 -0.4721 0.143011 0.869767
-5.74004 -38.3738 85.0014 -0.409828 0.162307 0.897301
-4.50375 -38.0949 85.4762 -0.383027 0.163982 0.909066
-3.21756 -37.8356 85.7965 -0.205458 0.22618 0.952142
-1.94761 -37.6257 85.974 -0.104492 0.251426 0.962204
-0.789615 -37.3762 86.0307 -0.0828031 0.252441 0.963932
0.209807 -37.1958 86.0127 -0.0146587 0.272639 0.961953
1.41699 -37.08 85.966 0.0340819 0.273944 0.961104
2.4846 -37.0072 85.8998 0.105817 0.286141 0.950046
4.26642 -37.2462 85.6033 0.225859 0.236236 0.944919
5.44016 -37.6516 85.3967 0.270719 0.20102 0.940643
6.44704 -38.0788 85.1266 0.379094 0.166975 0.910168
7.72824 -38.6312 84.7018 0.402306 0.190924 0.894469
8.76566 -39.0594 84.229 0.518528 0.143869 0.84287
9.71738 -39.4548 83.7099 0.515171 0.141073 0.845379
10.6199 -39.8648 83.1308 0.582509 0.0790665 0.80897
11.5304 -40.4049 82.5228 0.621874 0.0827449 0.77813
12.4542 -41.24 81.8345 0.646236 0.0882232 0.75802
12.9855 -42.2013 81.4549 0.663437 0.0716168 0.744794
13.1509 -43.4853 81.4323 0.666552 0.0711732 0.741985
13.0896 -44.6838 81.5903 0.661132 0.0645527 0.747487
12.6363 -45.8475 82.0797 0.661534 0.046329 0.747959
11.9739 -46.713 82.6904 0.639791 0.0505025 0.766888
11.3205 -47.265 83.2376 0.620847 0.0344951 0.783172
10.2791 -47.7704 84.0453 0.594977 0.0422847 0.802629
9.11794 -47.9834 84.8691 0.520988 0.0606446 0.85107
7.84122 -48.0061 85.6079 0.495894 0.0538312 0.866711
6.59939 -47.9778 86.158 0.380166 -0.00113557 0.924918
5.36909 -47.9482 86.6362 0.311518 0.0088328 0.950146
3.90377 -47.9546 87.0522 0.187782 0.0209551 0.979973
2.88687 -47.9755 87.1751 0.112729 0.0422452 0.992724
1.84681 -48.0031 87.2642 0.0951287 0.0188245 0.99512
0.790627 -48.0206 87.3673 0.0371465 -0.00995797 0.999251
-0.370923 -48.0355 87.4103 -0.00711431 0.0342028 0.997413
-0.755668 -48.0238 87.3879 -0.106129 0.0642923 0.990929
-0.608585 -48.7432 87.4295 -0.0553195 0.0127232 0.992292
-2.17924 -48.6955 87.1551 -0.177201 -0.00220364 0.984172
-3.33044 -48.6835 86.9072 -0.289851 0.0346928 0.952527
-4.30851 -48.6764 86.5303 -0.358949 0.0842177 0.929549
-5.27469 -48.6989 86.1341 -0.37217 0.0637509 0.925823
-6.26766 -48.7254 85.7521 -0.359763 0.0540118 0.931479
-7.20751 -48.744 85.3135 -0.458289 0.0505662 0.886494
-8.73425 -48.7062 84.3869 -0.544316 0.0439487 0.837726
-9.69391 -48.5335 83.7228 -0.58657 0.0378438 0.808344
-10.7277 -47.7777 82.855 -0.640028 0.0417485 0.767207
-11.1599 -46.9305 82.4502 -0.662299 0.0504134 0.747014
-11.4394 -45.8173 82.0953 -0.680319 0.0615678 0.730326
-11.6492 -44.8046 81.8562 -0.680007 0.0265066 0.732723
-11.8243 -43.755 81.6396 -0.67397 0.0427545 0.73752
-12.065 -42.5242 81.3473 -0.663505 0.0588971 0.745559
-12.2889 -41.3424 81.0391 -0.652114 0.0724465 0.754652
-12.4428 -40.0082 80.7916 -0.646416 0.0481584 0.761463
-12.1318 -38.3763 80.8914 -0.611519 0.0942158 0.785567
-11.4345 -37.6813 81.3472 -0.604192 0.112841 0.788654
-10.4381 -37.4224 82.0431 -0.588309 0.12688 0.798609
-9.62174 -37.4717 82.655 -0.556717 0.134053 0.818885
-8.27769 -37.7051 83.5317 -0.520758 0.133802 0.843137
-7.40516 -37.7876 84.0456 -0.475423 0.177768 0.861609
-6.50598 -37.7455 84.5181 -0.434206 0.157095 0.887009
-5.06038 -37.501 85.1291 -0.389326 0.170867 0.905113
-3.386 -37.1324 85.5994 -0.209018 0.212973 0.954426
-2.31518 -36.9435 85.7598 -0.0992857 0.251119 0.962848
-0.858998 -36.6335 85.8259 -0.0586404 0.266994 0.961054
0.730199 -36.4064 85.7891 0.00517591 0.294242 0.955484
1.76922 -36.3096 85.7254 0.0413444 0.281344 0.958716
2.9757 -36.2899 85.5903 0.171455 0.288363 0.942045
4.17101 -36.4612 85.4297 0.187993 0.262119 0.945932
5.12427 -36.7522 85.2584 0.24066 0.221868 0.944906
6.10501 -37.1521 85.0978 0.326199 0.224714 0.914076
7.12014 -37.6307 84.7574 0.408765 0.231987 0.882656
8.05159 -38.0462 84.4013 0.43994 0.205897 0.874045
9.3921 -38.581 83.7616 0.512896 0.143941 0.846267
10.2754 -38.9248 83.2869 0.546476 0.109122 0.828785
11.2214 -39.3804 82.6499 0.599781 0.0862153 0.795177
12.1073 -39.9804 81.9903 0.642071 0.0706309 0.763384
12.9102 -40.769 81.392 0.655446 0.075543 0.751249
13.5668 -41.9905 80.9075 0.674696 0.067814 0.734974
13.6866 -42.998 80.8921 0.672289 0.0775847 0.736212
13.7267 -44.3475 80.9977 0.666615 0.0711722 0.741926
13.5562 -45.3656 81.2173 0.670917 0.0275487 0.741021
12.8106 -46.7988 81.9706 0.681632 0.0406677 0.730564
11.7728 -47.8219 82.9032 0.629908 0.0158101 0.776272
10.937 -48.3331 83.5971 0.627676 0.0616815 0.774039
10.1455 -48.5814 84.1951 0.581837 0.0765584 0.809688
9.31656 -48.695 84.7978 0.568432 0.0596953 0.820251
8.38047 -48.7395 85.3536 0.496002 0.0717789 0.865267
7.48408 -48.7292 85.8557 0.421702 0.0571153 0.901282
5.99433 -48.6831 86.4061 0.365512 0.0270564 0.929849
4.88063 -48.6613 86.8054 0.282293 0.00867474 0.958147
3.57765 -48.6563 87.125 0.173893 0.0175674 0.98243
2.41149 -48.6948 87.2394 0.0798868 0.0292277 0.996375
1.2748 -48.7298 87.3307 0.0936195 0.0171688 0.995278
0.269704 -48.7468 87.3841 0.0509288 0.0381888 0.997972
0.152342 -48.7461 87.39 0.0514209 0.0377425 0.997963
0.435165 -49.46 87.4029 0.0509288 0.0381888 0.997972
-1.34008 -49.4314 87.3011 -0.164631 -0.010928 0.986291
-2.75801 -49.4028 87.0267 -0.221112 -0.0158665 0.975118
-3.83706 -49.3942 86.7777 -0.292514 0.0346597 0.951757
-4.82944 -49.4002 86.3763 -0.384893 0.0741573 0.919977
-5.84282 -49.4283 85.9549 -0.372419 0.0622533 0.925804
-6.85726 -49.458 85.5012 -0.426325 0.0280786 0.904134
-8.03842 -49.4597 84.8773 -0.536226 0.0345822 0.843332
-9.06179 -49.417 84.2107 -0.554288 0.0488971 0.830818
-10.2828 -49.1588 83.2847 -0.610498 0.0186095 0.791799
-11.1184 -48.4639 82.5675 -0.642735 0.0452112 0.764752
-11.8306 -46.7897 81.813 -0.682421 0.0635024 0.728195
-12.0275 -45.7077 81.5382 -0.680848 0.0447486 0.730863
-12.2405 -44.5798 81.3018 -0.677514 0.0319559 0.734782
-12.4578 -43.3853 81.0355 -0.69289 0.0433891 0.719728
-12.8083 -41.6895 80.6119 -0.68949 0.0262811 0.723817
-13.0039 -40.5966 80.3501 -0.650162 0.0586987 0.757401
-13.0783 -39.5564 80.2137 -0.724268 0.0744336 0.685478
-12.912 -38.4277 80.2698 -0.691936 0.0854492 0.715247
-12.3227 -37.5194 80.6316 -0.612825 0.101881 0.783623
-11.1133 -36.7215 81.4376 -0.595161 0.124382 0.793923
-10.2909 -36.6271 82.0282 -0.58534 0.123636 0.801304
-9.4828 -36.7142 82.6193 -0.519973 0.144602 0.841796
-8.58735 -36.8979 83.1995 -0.51351 0.153796 0.844188
-7.26739 -37.0846 83.9776 -0.466657 0.149802 0.871659
-6.35095 -37.0411 84.4701 -0.453692 0.167488 0.874906
-5.19296 -36.8098 84.9256 -0.372371 0.228431 0.899532
-3.97242 -36.5245 85.3003 -0.262702 0.264326 0.927965
-2.76557 -36.2936 85.5417 -0.151456 0.236047 0.958292
-1.76164 -36.0789 85.5884 -0.0943946 0.265459 0.959417
-0.715203 -35.864 85.5992 -0.0196638 0.294343 0.955489
0.553846 -35.6863 85.5663 -0.0155727 0.292692 0.95608
2.10183 -35.5405 85.4797 0.0344572 0.301711 0.952755
3.12869 -35.5529 85.3658 0.14841 0.238512 0.959731
4.91847 -35.9032 85.1112 0.228936 0.233045 0.945023
5.8426 -36.2751 84.9608 0.244123 0.221399 0.944132
6.75179 -36.7107 84.6853 0.406648 0.230267 0.884088
7.62409 -37.1365 84.3916 0.421915 0.222357 0.878831
9.01493 -37.6993 83.8247 0.440139 0.216235 0.871476
9.86373 -38.0225 83.3872 0.509048 0.140073 0.849261
10.9182 -38.4378 82.7763 0.598991 0.0860661 0.795815
11.771 -38.8757 82.1565 0.617067 0.0921023 0.781502
12.6143 -39.5267 81.521 0.642638 0.0708584 0.762886
13.643 -40.6252 80.7122 0.673436 0.0629161 0.736544
14.1198 -41.7384 80.3772 0.674087 0.0671644 0.735592
14.2529 -43.0732 80.3828 0.717672 0.0612651 0.6905
14.2557 -44.6996 80.4912 0.763412 0.0451604 0.644331
14.0597 -45.7213 80.7421 0.734276 0.0077658 0.678805
13.6373 -46.7259 81.1901 0.678703 0.0320394 0.733608
13.0422 -47.5468 81.7853 0.690729 0.0150937 0.722947
12.3024 -48.2985 82.4668 0.649831 -0.00715228 0.759768
11.5097 -48.8532 83.1158 0.631124 -0.00133564 0.775667
10.7694 -49.2043 83.7989 0.630329 0.0394229 0.77357
9.97862 -49.3739 84.3871 0.557528 0.0419279 0.829098
8.69573 -49.4533 85.2181 0.520486 0.0460976 0.852625
7.5503 -49.4491 85.8788 0.414566 0.0698029 0.903674
6.59944 -49.4216 86.223 0.347568 0.0552792 0.936019
5.07721 -49.3823 86.751 0.317779 0.0289906 0.947611
3.44286 -49.3676 87.1527 0.232085 0.013973 0.972579
2.26116 -49.4162 87.2739 0.0806126 0.0324386 0.996217
0.630721 -49.4568 87.3928 0.0560029 0.0335987 0.997842
0.577456 -50.1705 87.4171 0.0607799 0.0295406 0.997714
2.34839 -50.1363 87.2902 0.0909189 0.0205681 0.995525
3.36127 -50.089 87.1863 0.168469 0.0139877 0.983262
4.5442 -50.1353 86.8958 0.244662 0.00899123 0.969564
5.60961 -50.1142 86.6002 0.283773 0.0215833 0.958565
6.71511 -50.1495 86.2188 0.338048 0.0481508 0.939894
8.18009 -50.1722 85.565 0.499795 0.0295301 0.865459
9.25035 -50.1673 84.918 0.539709 0.0449575 0.840344
10.4746 -50.0287 84.068 0.583233 0.044094 0.811017
11.249 -49.8592 83.3889 0.672496 0.0203637 0.73982
12.0728 -49.3615 82.6522 0.649911 -0.00817097 0.759667
12.8718 -48.7048 81.9522 0.66711 -0.0145229 0.744814
13.5084 -47.9943 81.3456 0.692965 0.0156948 0.720799
14.0377 -47.2411 80.781 0.733305 0.00485349 0.679883
14.6325 -45.7083 80.1182 0.752516 0.0277206 0.657443
14.7732 -44.5433 79.8667 0.763975 0.0445838 0.643701
14.7813 -43.5223 79.7899 0.756757 0.0360267 0.652702
14.6836 -42.0157 79.8186 0.755942 0.0368234 0.653602
14.3756 -40.5576 80.0281 0.680005 0.0637784 0.730376
13.6184 -39.6043 80.6541 0.675049 0.0587322 0.735431
12.8942 -38.8633 81.2169 0.650605 0.0731924 0.755879
11.633 -37.9769 82.1535 0.619049 0.112589 0.77724
10.5795 -37.5467 82.8695 0.526483 0.164364 0.833883
9.62271 -37.2043 83.3777 0.50581 0.162193 0.847258
8.60496 -36.8312 83.8172 0.433607 0.212035 0.875799
7.36418 -36.2811 84.2886 0.410726 0.231805 0.881799
6.41486 -35.7915 84.6001 0.402573 0.240409 0.883199
4.87173 -35.1134 84.9167 0.220445 0.245625 0.943966
3.59176 -34.8664 85.0994 0.141149 0.280506 0.949376
2.43599 -34.7976 85.226 0.110208 0.296246 0.948728
1.08214 -34.8776 85.3046 0.030928 0.303169 0.952397
0.0516101 -35.0061 85.3495 -0.0178784 0.295541 0.955156
-1.14773 -35.2108 85.3858 -0.0227489 0.29694 0.954625
-2.15655 -35.4356 85.3637 -0.0939216 0.27696 0.95628
-3.67741 -35.7606 85.1656 -0.264284 0.252967 0.930591
-5.22441 -36.112 84.7354 -0.369342 0.234153 0.89929
-6.63247 -36.3344 84.1896 -0.426187 0.198376 0.880244
-7.65197 -36.2956 83.6364 -0.4671 0.149186 0.871528
-8.77994 -36.0845 82.9346 -0.514465 0.153404 0.843677
-9.87349 -35.8964 82.1868 -0.564286 0.167877 0.808331
-10.7545 -35.8796 81.5653 -0.561022 0.157833 0.812509
-11.6246 -36.096 80.9575 -0.594233 0.12023 0.795256
-12.4854 -36.7 80.3775 -0.661932 0.115206 0.740652
-13.1766 -37.5987 79.8996 -0.671702 0.118332 0.731229
-13.5441 -38.6103 79.6236 -0.727507 0.0552443 0.683873
-13.6138 -39.7725 79.6672 -0.726596 0.0733005 0.683143
-13.4465 -41.369 79.9895 -0.711173 0.0376518 0.701337
-13.1468 -42.6843 80.3252 -0.692264 0.0365349 0.720641
-12.9187 -43.9215 80.6227 -0.688471 0.045609 0.723791
-12.7305 -45.0126 80.8612 -0.682437 0.0253636 0.7305
-12.5343 -46.0548 81.0821 -0.687714 0.0472528 0.72415
-12.2035 -47.6171 81.5353 -0.689734 0.048505 0.722322
-11.7638 -48.6067 81.9881 -0.681737 0.0270699 0.731096
-11.0088 -49.727 82.7324 -0.661539 0.03532 0.748576
-10.1627 -50.0589 83.4096 -0.611112 0.0455185 0.790233
-9.35432 -50.1311 84.0365 -0.580704 0.0286792 0.812655
-8.46492 -50.1545 84.6214 -0.543011 0.0186501 0.839517
-7.61383 -50.1831 85.1542 -0.428339 0.0110052 0.903551
-6.5367 -50.1702 85.6644 -0.426589 0.00942525 0.904392
-5.42119 -50.1304 86.1635 -0.388682 0.0195484 0.921164
-4.37979 -50.1131 86.602 -0.359414 -0.0055928 0.932312
-3.29417 -50.113 86.9003 -0.224662 0.0115288 0.974368
-2.2011 -50.1281 87.1452 -0.208237 0.00817322 0.977992
-1.12683 -50.1509 87.3287 -0.164631 -0.010928 0.986291
-0.0278068 -50.1732 87.4538 0.0556368 0.0338207 0.997857
-0.0513455 -50.8823 87.464 -0.0109769 -0.0152936 0.99754
-1.62818 -50.85 87.2594 -0.159739 0.0172725 0.987006
-2.6929 -50.8422 87.0463 -0.201519 0.00315964 0.979478
-3.71089 -50.8245 86.8133 -0.278964 -0.00703182 0.958194
-4.71868 -50.8434 86.458 -0.334763 -0.0367868 0.941575
-5.72228 -50.8539 86.0514 -0.406976 0.0115856 0.913129
-6.71699 -50.884 85.5845 -0.425081 0.00502501 0.905141
-7.68987 -50.916 85.1265 -0.483153 0.00846131 0.873265
-8.73121 -50.8904 84.4603 -0.555626 0.0156679 0.831269
-9.65916 -50.8555 83.8433 -0.58296 0.0275328 0.811135
-10.4533 -50.7909 83.2193 -0.64293 0.01141 0.765839
-11.4775 -50.3344 82.3031 -0.687404 0.0158104 0.726069
-12.0058 -49.5086 81.7948 -0.684475 0.0186215 0.728756
-12.5024 -48.4713 81.2886 -0.685568 0.029184 0.727423
-12.8204 -47.5805 80.9416 -0.695225 0.0342959 0.717957
-13.0235 -46.5507 80.6524 -0.686097 0.054741 0.72521
-13.2291 -45.3349 80.4077 -0.67997 0.0295264 0.732644
-13.4594 -43.9364 80.1077 -0.69212 0.0509546 0.719981
-13.6666 -42.887 79.8361 -0.692264 0.0365349 0.720641
-13.9059 -41.8106 79.5243 -0.732374 0.0454482 0.679384
-14.0795 -40.8322 79.2717 -0.732595 0.0567762 0.678199
-14.1265 -39.0805 79.0442 -0.726003 0.0648532 0.684547
-14.017 -38.0528 79.0824 -0.718368 0.0491907 0.693922
-13.6114 -37.1206 79.4117 -0.678235 0.108382 0.726696
-12.7694 -36.0414 80.0243 -0.662362 0.112837 0.740637
-12.0455 -35.4958 80.5411 -0.643089 0.14372 0.752184
-11.2024 -35.1757 81.1339 -0.573904 0.135908 0.807069
-10.1093 -35.1114 81.86 -0.557909 0.159857 0.814285
-9.19388 -35.2418 82.5008 -0.527925 0.1749 0.831082
-8.17408 -35.4673 83.1925 -0.520201 0.162379 0.838357
-6.90628 -35.649 83.8796 -0.385225 0.249095 0.888568
-5.98341 -35.5941 84.2646 -0.384585 0.247482 0.889295
-4.85999 -35.3415 84.6717 -0.36071 0.263448 0.894524
-3.26237 -34.9504 85.0753 -0.266291 0.240368 0.933441
-2.01054 -34.6708 85.1567 -0.110421 0.287479 0.951161
-0.695304 -34.4063 85.1462 -0.0244418 0.298374 0.954134
0.397456 -34.2226 85.118 -0.0403263 0.270702 0.961642
1.59494 -34.0971 85.0416 0.0661112 0.211666 0.975103
2.61403 -34.0697 84.98 0.0750322 0.302935 0.949324
4.15792 -34.2176 84.8277 0.126859 0.294479 0.947195
5.18692 -34.4537 84.6675 0.221899 0.250732 0.942281
6.63413 -35.1221 84.3335 0.388556 0.199933 0.899473
7.81706 -35.7746 83.9514 0.394941 0.189182 0.899006
8.88187 -36.2238 83.533 0.433607 0.212035 0.875799
10.1982 -36.6845 82.9357 0.520288 0.171376 0.836349
11.0848 -36.9852 82.4182 0.542865 0.175049 0.821374
11.9104 -37.3217 81.8376 0.620255 0.114533 0.775992
12.8651 -37.9256 81.138 0.648962 0.0930365 0.755111
13.7045 -38.7878 80.5099 0.663531 0.0655689 0.745087
14.428 -39.507 79.879 0.713756 0.084005 0.695338
14.9816 -40.5101 79.3893 0.757993 0.0457269 0.650602
15.1556 -41.5009 79.2431 0.75836 0.0367912 0.650796
15.2225 -42.5061 79.221 0.758052 0.0360456 0.651197
15.2908 -44.0587 79.2269 0.758259 0.0354132 0.650991
15.2339 -45.3176 79.3794 0.760026 0.048747 0.648062
14.9379 -46.57 79.7932 0.747462 0.010813 0.664104
14.4675 -47.6613 80.3205 0.733676 0.00603879 0.679471
13.9911 -48.3805 80.842 0.732176 0.00664388 0.681083
13.4711 -49.0475 81.4062 0.728809 0.0179453 0.684364
12.6997 -49.7943 82.1029 0.652821 0.0270512 0.757029
11.98 -50.2925 82.7466 0.659532 0.0368123 0.750774
10.6779 -50.7495 83.9325 0.628442 0.010155 0.775651
9.47085 -50.899 84.7951 0.580609 0.0113672 0.814098
8.48567 -50.8991 85.4032 0.500124 0.0144259 0.865798
6.84754 -50.865 86.1858 0.367606 0.00245846 0.929978
5.60172 -50.8441 86.6268 0.268853 0.0205248 0.962858
4.5562 -50.8269 86.9005 0.246246 0.00989913 0.969156
3.41157 -50.8166 87.1869 0.173378 0.0113408 0.982244
1.58016 -50.8688 87.3755 0.0909189 0.0205681 0.995525
0.333041 -50.8808 87.4433 0.0546306 0.00297812 0.998501
0.611324 -51.6041 87.4229 0.012282 -0.0199572 0.99921
1.65301 -51.5724 87.3722 0.0774693 0.00256379 0.996721
3.41837 -51.5469 87.191 0.106526 0.00120337 0.994295
4.41659 -51.5279 86.9545 0.246126 0.0296234 0.968725
5.84326 -51.5508 86.5823 0.295425 0.0272493 0.953769
6.84786 -51.5702 86.1958 0.376938 0.0322223 0.925672
8.18142 -51.579 85.5822 0.486873 0.00842362 0.87342
9.25517 -51.6572 84.9624 0.544442 0.0138636 0.837519
10.6389 -51.517 83.9634 0.596992 -0.00340274 0.801988
11.5308 -51.3586 83.1947 0.660397 0.03718 0.749995
12.5728 -50.7847 82.2511 0.658497 0.0373091 0.751658
13.2647 -50.2723 81.6327 0.675821 0.0170822 0.736139
13.834 -49.6075 81.0473 0.71876 0.0204864 0.694814
14.3327 -48.9209 80.4907 0.727001 0.0307692 0.685944
14.878 -48.082 79.8846 0.744758 0.025626 0.666287
15.3255 -47.1586 79.3523 0.758137 0.00412951 0.652049
15.6638 -45.9419 78.9225 0.759457 0.0488845 0.648719
15.789 -44.7892 78.6913 0.758806 0.0474089 0.649588
15.8195 -43.4272 78.5755 0.759058 0.0354761 0.650056
15.6851 -41.9092 78.649 0.764965 0.033127 0.643131
15.52 -40.5309 78.7628 0.759089 0.0452955 0.649365
15.1468 -39.5201 79.1142 0.757562 0.0545806 0.650477
14.6298 -38.7933 79.585 0.714516 0.085323 0.694395
13.9245 -38.1134 80.2338 0.69103 0.0846561 0.717041
12.8478 -36.9678 81.0328 0.635213 0.105687 0.764838
11.6909 -36.4555 81.8849 0.621426 0.117522 0.774604
10.8339 -36.1557 82.4101 0.542323 0.156993 0.825372
9.78292 -35.8174 83.0065 0.463917 0.167302 0.869093
8.73001 -35.4714 83.4616 0.433065 0.153062 0.888271
7.48921 -34.8248 83.8956 0.394941 0.189182 0.899006
6.46135 -34.2263 84.2113 0.344165 0.231086 0.907881
5.48294 -33.8035 84.3859 0.281967 0.28718 0.915428
4.51974 -33.5424 84.5719 0.128581 0.27305 0.953149
3.33877 -33.3843 84.6923 0.130389 0.255166 0.958065
2.10038 -33.313 84.8377 0.0974552 0.233514 0.966717
1.08234 -33.3782 84.9204 0.065213 0.210971 0.975315
0.0474043 -33.5385 84.9108 -0.0403263 0.270702 0.961642
-1.41148 -33.8276 84.9541 -0.0543025 0.294345 0.953672
-2.66266 -34.1267 84.8969 -0.128781 0.288683 0.948724
-3.87442 -34.382 84.7577 -0.306333 0.256759 0.91531
-4.88096 -34.684 84.4607 -0.351787 0.277533 0.893984
-6.61655 -34.9667 83.8139 -0.384397 0.250494 0.888532
-7.62645 -34.8404 83.3467 -0.408594 0.249012 0.877431
-8.57295 -34.6148 82.7391 -0.505479 0.231535 0.831193
-9.48143 -34.4263 82.128 -0.500673 0.213647 0.838576
-10.4215 -34.3331 81.5006 -0.548029 0.175371 0.817868
-11.4229 -34.4613 80.8524 -0.552351 0.163352 0.817365
-12.4491 -34.9269 80.0954 -0.617564 0.0637918 0.78393
-13.2229 -35.578 79.5488 -0.653311 0.127324 0.746051
-13.8842 -36.4219 79.0393 -0.700156 0.1133 0.704934
-14.4647 -37.5917 78.5867 -0.718577 0.0483185 0.693766
-14.6448 -38.6823 78.4749 -0.719527 0.0478053 0.692817
-14.6601 -39.9351 78.5627 -0.721836 0.0607756 0.689388
-14.5828 -41.0857 78.7457 -0.735924 0.0424089 0.675711
-14.3715 -42.096 79.0372 -0.739231 0.0393016 0.672304
-14.1033 -43.3282 79.4101 -0.735995 0.0453894 0.675451
-13.9186 -44.344 79.6737 -0.734106 0.0421611 0.677725
-13.6524 -46.1078 80.0394 -0.723658 0.0253601 0.689671
-13.5216 -47.0847 80.2181 -0.720907 0.0371396 0.691994
-13.2594 -48.0895 80.5359 -0.701248 0.0360543 0.711987
-12.8045 -49.2109 81.0243 -0.699912 0.0178891 0.713961
-12.373 -50.1798 81.4562 -0.700033 0.0056715 0.714085
-11.6682 -51.2338 82.1462 -0.691376 0.0196828 0.722227
-10.8988 -51.496 82.8556 -0.658604 0.00222488 0.752158
-9.97457 -51.5925 83.6322 -0.626939 0.00209683 0.77876
-9.12762 -51.6311 84.2167 -0.554729 0.0431431 0.830909
-8.00188 -51.6262 84.9519 -0.508876 0.0139027 0.860342
-6.87029 -51.5665 85.5238 -0.421979 0.0298794 0.906112
-5.71531 -51.5583 86.0628 -0.419128 0.0250853 0.907552
-4.5827 -51.5755 86.4816 -0.339001 0.0276326 0.940333
-3.41292 -51.5463 86.8948 -0.278964 -0.00703182 0.958194
-2.31511 -51.5839 87.1265 -0.201519 0.00315964 0.979478
-1.01426 -51.5598 87.3656 -0.122922 -0.0117521 0.991457
-0.0639221 -51.5627 87.4435 -0.0237883 -0.0366076 0.997664
0.0265992 -52.395 87.4209 -0.0335575 -0.0261518 0.998765
-1.05436 -52.4309 87.3403 -0.0836538 -0.0171618 0.996344
-2.58449 -52.355 87.0804 -0.201362 0.0156398 0.979392
-4.31182 -52.3204 86.6088 -0.315133 0.0266839 0.948672
-5.4786 -52.3675 86.1875 -0.375876 0.0413577 0.924737
-6.51488 -52.3978 85.7186 -0.416524 0.0278804 0.908661
-7.59234 -52.3948 85.1756 -0.491739 -0.015087 0.870612
-8.57059 -52.3214 84.6203 -0.495048 -0.014014 0.868738
-9.54213 -52.3705 83.9596 -0.611485 -0.00695309 0.791225
-10.743 -52.4826 83.0095 -0.653275 0.017855 0.756617
-11.5618 -52.1747 82.2653 -0.678786 0.0141821 0.734098
-12.3317 -51.6284 81.5205 -0.692994 0.0188219 0.720696
-12.9233 -50.5084 80.9207 -0.7019 0.00667528 0.712245
-13.526 -49.3335 80.3163 -0.699824 0.00910383 0.714256
-13.847 -48.2125 79.9508 -0.718627 0.0405623 0.69409
-14.1035 -47.0201 79.6073 -0.73201 0.0334473 0.680445
-14.178 -45.9362 79.4816 -0.723658 0.0253601 0.689671
-14.3988 -44.9137 79.1884 -0.73433 0.0390801 0.677666
-14.6245 -43.6802 78.864 -0.738089 0.0482668 0.672975
-14.8422 -42.678 78.5535 -0.738727 0.04359 0.672578
-15.0489 -41.484 78.2602 -0.733969 0.0350913 0.678275
-15.181 -40.3294 78.0455 -0.732967 0.0473342 0.678614
-15.2085 -38.9678 77.9093 -0.719383 0.0525012 0.69261
-15.131 -37.7925 77.9124 -0.710478 0.0417238 0.702482
-14.8684 -36.5961 78.1129 -0.702995 0.0400655 0.709907
-14.249 -35.8593 78.6471 -0.668278 0.0431037 0.742662
-13.3878 -34.8299 79.3316 -0.643839 0.069589 0.761966
-12.314 -33.9488 80.1226 -0.599218 0.0889284 0.79488
-10.8962 -33.5792 81.0283 -0.521329 0.141016 0.841614
-9.91062 -33.5269 81.6697 -0.518443 0.189326 0.833103
-9.01326 -33.6737 82.2207 -0.482929 0.203654 0.851626
-8.17715 -33.8344 82.7612 -0.469644 0.248256 0.846314
-7.26378 -34.1462 83.3168 -0.432175 0.262116 0.862849
-6.05899 -34.2468 83.8586 -0.378349 0.237652 0.894634
-4.89869 -33.9096 84.2331 -0.342945 0.227752 0.911327
-4.00062 -33.5458 84.4824 -0.268311 0.277324 0.917901
-2.97621 -33.531 84.673 -0.133599 0.286501 0.948705
-1.93247 -33.1292 84.6827 -0.077036 0.304696 0.949324
-0.855248 -32.8984 84.6982 -0.0520289 0.295169 0.953579
0.418798 -32.7716 84.7241 -0.0598341 0.263797 0.962714
1.48059 -32.5313 84.7106 0.0097384 0.239379 0.968853
2.60361 -32.6069 84.5835 0.124338 0.253895 0.959205
3.84928 -32.6682 84.4338 0.1279 0.246552 0.960642
4.90811 -32.8981 84.2982 0.233403 0.278563 0.930041
6.25327 -33.3485 84.0099 0.281772 0.269127 0.920894
7.12843 -33.8211 83.8447 0.387986 0.185005 0.9029
8.29343 -34.4656 83.4726 0.390837 0.185981 0.901475
9.31736 -34.821 83.0652 0.457981 0.159805 0.8739
10.3317 -35.3038 82.5774 0.514 0.168696 0.840585
11.2055 -35.4916 82.038 0.565389 0.164866 0.80818
12.513 -36.0669 81.1645 0.621684 0.120097 0.774006
13.4777 -36.6714 80.4395 0.661961 0.10508 0.742136
14.1274 -37.4291 79.9555 0.668729 0.100985 0.736616
14.7458 -37.9889 79.3809 0.714801 0.0675529 0.696057
15.6931 -39.3312 78.4706 0.741578 0.0413702 0.669589
16.0466 -40.4728 78.1477 0.747108 0.0328785 0.663796
16.1422 -41.4926 78.0741 0.77182 0.0295507 0.635153
16.3094 -43.38 77.989 0.769696 0.048098 0.636596
16.3755 -44.7004 77.9705 0.772786 0.0300996 0.633372
16.2025 -45.7965 78.2568 0.799717 0.0025144 0.60032
15.912 -47.095 78.6626 0.778806 0.0108944 0.626513
15.5684 -47.9872 79.0662 0.761155 0.0200845 0.647903
15.165 -48.8299 79.586 0.756663 0.0378193 0.652708
14.608 -49.522 80.2257 0.729948 0.029387 0.682862
13.7464 -50.8207 81.1653 0.717346 0.0101727 0.696616
13.1546 -51.3714 81.7653 0.678337 0.0315877 0.733768
12.2716 -51.8011 82.5574 0.657399 0.0152808 0.753372
11.1378 -52.1665 83.5483 0.65512 0.00470139 0.755504
10.2645 -52.3216 84.2308 0.607399 -0.0184297 0.794183
9.23676 -52.5406 84.9895 0.544597 0.0143221 0.837347
7.84607 -52.3903 85.7627 0.472676 -0.0313419 0.880672
6.73045 -52.388 86.2733 0.356095 0.0250698 0.933712
5.7694 -52.3675 86.6164 0.335521 0.00879924 0.941988
4.75069 -52.3647 86.8993 0.227186 0.0260991 0.973181
3.4557 -52.2368 87.1846 0.164652 -0.0035596 0.984759
1.96262 -52.406 87.3425 0.104679 -0.000702366 0.994493
0.853019 -52.3286 87.4244 0.0597403 0.0172298 0.99805
0.770855 -52.3333 87.4295 0.0291781 0.0101107 0.999007
0.700899 -52.3265 87.4292 -0.00684625 -0.00299378 0.9999
