-4.4546 48.6292 85.0343 -0.269435 -0.0632481 0.960597
-3.41492 48.6219 85.2464 -0.173225 -0.0616152 0.982926
-1.85946 48.6554 85.5006 -0.110992 -0.0282847 0.991786
-0.769159 48.6495 85.54 -0.0200954 -0.00677344 0.999769
0.58867 48.6036 85.5303 0.0767882 -0.0249252 0.996418
1.95443 48.5826 85.3916 0.109981 0.00194514 0.993836
3.19108 48.6335 85.1836 0.206695 -0.0441938 0.977398
4.43192 48.7023 84.9022 0.25068 -0.0375815 0.96734
5.66784 48.725 84.5763 0.281295 -0.0114067 0.959329
7.07637 48.7325 84.1005 0.324625 -0.0257979 0.945491
8.27557 48.7448 83.5962 0.433878 -0.0207678 0.900143
9.19743 48.6785 83.1225 0.461524 -0.0406196 0.886155
10.0854 48.3432 82.634 0.480336 -0.0497476 0.875535
11.1091 47.4772 81.9922 0.496425 -0.0347647 0.867012
11.9264 46.7948 81.4549 0.592572 0.0195177 0.805279
12.985 45.9014 80.6976 0.594904 0.0180634 0.803586
13.7992 45.2068 80.107 0.607374 0.00627934 0.794215
14.561 44.3465 79.4763 0.661913 0.0160732 0.749408
15.2176 43.284 78.8895 0.681316 0.00106653 0.731986
15.5807 42.3391 78.5555 0.681057 0.00353832 0.732221
15.8269 41.3375 78.3367 0.66517 0.0105041 0.746616
15.8744 40.1169 78.2719 0.662828 -0.0163381 0.748594
15.56 39.1163 78.5231 0.658362 -0.0296047 0.752119
14.9147 38.4261 79.0561 0.62139 -0.0344083 0.781532
13.7948 38.1948 79.8594 0.58732 -0.0351788 0.80859
12.7721 38.3114 80.5882 0.573063 -0.0357728 0.81873
11.958 38.54 81.1487 0.560503 -0.0312402 0.827563
10.9106 38.7883 81.7534 0.464768 -0.0450321 0.884287
9.81939 38.9916 82.3373 0.454061 -0.0510844 0.889405
8.85265 39.0899 82.8228 0.429843 -0.065305 0.900382
7.91529 39.0822 83.2606 0.425376 -0.0890692 0.900586
6.66152 39.0104 83.7593 0.297322 -0.0838824 0.950399
5.63453 38.9637 84.0475 0.272593 -0.110726 0.955737
4.63827 38.9414 84.3005 0.237155 -0.0979768 0.966512
3.19822 38.9117 84.5726 0.117552 -0.057712 0.991386
1.38853 38.7598 84.7432 0.0826873 -0.0699441 0.994118
0.105164 38.4777 84.7994 -0.0150965 -0.124548 0.992097
-1.08222 38.2528 84.7468 -0.0224149 -0.124397 0.991966
-2.83941 38.0258 84.5728 -0.090676 -0.0980256 0.991044
-3.85029 37.9213 84.3427 -0.201782 -0.120147 0.971949
-5.12015 37.8172 84.0372 -0.231046 -0.106443 0.967065
-6.10376 37.7443 83.7933 -0.263579 -0.101295 0.958656
-7.30488 37.6836 83.3328 -0.359716 -0.140088 0.922485
-8.33528 37.6673 82.8951 -0.412666 -0.109287 0.904224
-9.36304 37.7327 82.4384 -0.41989 -0.0985202 0.902212
-10.4617 37.8272 81.9281 -0.479812 -0.103001 0.869434
-11.4369 37.8213 81.3186 -0.530309 -0.0943587 0.842536
-12.5778 37.7168 80.5735 -0.558044 -0.0763591 0.82586
-13.3797 37.6117 79.9834 -0.594115 -0.0819035 0.80014
-14.3235 37.8236 79.2797 -0.619284 -0.0697338 0.782054
-14.0187 38.8804 79.6141 -0.623001 -0.055259 0.780153
-13.7732 39.854 79.866 -0.629397 -0.0443142 0.775819
-13.5573 40.8096 80.0947 -0.629237 -0.0449142 0.775915
-13.3147 42.0528 80.3624 -0.621911 -0.0359866 0.782177
-13.0728 43.1175 80.6114 -0.61143 -0.0595359 0.789051
-12.7405 44.1055 80.9373 -0.590749 -0.0458031 0.805155
-12.2121 45.1784 81.3425 -0.579633 -0.0132957 0.814769
-11.6202 46.1223 81.7552 -0.526287 -0.0372524 0.849402
-11.033 46.9888 82.1669 -0.523914 -0.0508073 0.850255
-10.2875 47.7842 82.6376 -0.498762 -0.0456519 0.865524
-9.51127 48.3158 83.1096 -0.4729 -0.0425338 0.879832
-9.78722 49.0234 82.9957 -0.48588 -0.043632 0.871839
-8.3803 49.3952 83.7086 -0.438722 -0.0140548 0.898507
-7.02746 49.358 84.2622 -0.321968 -0.0151922 0.946628
-5.95483 49.351 84.6134 -0.299038 -0.0424416 0.953269
-4.21054 49.3573 85.134 -0.234219 -0.0374208 0.970351
-2.54349 49.3814 85.436 -0.143302 -0.0242607 0.989013
-1.39522 49.3663 85.5262 -0.0630768 0.000686886 0.997979
-0.115456 49.3557 85.5541 -0.0171107 -0.00610084 0.999833
1.27863 49.323 85.4574 0.109507 0.0175854 0.993826
2.50203 49.3368 85.3037 0.157344 0.0247999 0.987224
3.8075 49.3897 85.0857 0.188269 -0.00797305 0.981133
5.3234 49.4401 84.6826 0.263899 -0.0192395 0.964354
6.36647 49.4233 84.3602 0.304276 -0.00286469 0.952573
7.72434 49.4447 83.8448 0.412973 0.00178022 0.910742
8.88683 49.4446 83.3182 0.433314 -0.0207693 0.900421
9.83276 49.3237 82.8127 0.469568 -0.0387675 0.882044
11.0187 48.5172 82.1145 0.539147 -0.0311866 0.839652
11.686 47.8619 81.6266 0.588654 -0.0134665 0.808243
12.3941 47.2518 81.1001 0.592701 0.0218217 0.805124
13.3758 46.4475 80.393 0.59737 0.019649 0.801725
14.1388 45.7724 79.8295 0.635813 0.00992859 0.771062
14.7703 45.0912 79.2756 0.663282 0.0167798 0.748179
15.3664 44.2695 78.7509 0.682876 0.000123574 0.730534
15.868 43.3399 78.285 0.680418 0.00257583 0.732819
16.3501 41.6887 77.8656 0.668395 0.0132757 0.743687
16.4903 40.6406 77.7537 0.656098 -0.0193598 0.754413
16.3164 39.2969 77.8673 0.658907 -0.0293776 0.751547
15.8621 38.3191 78.2285 0.657607 -0.027427 0.752862
14.8891 37.5466 79.0395 0.617573 -0.031153 0.784788
14.0746 37.4101 79.6219 0.584897 -0.0335226 0.810405
12.8873 37.511 80.4734 0.573566 -0.0354802 0.818391
12.0264 37.7806 81.0556 0.524124 -0.0609924 0.848559
10.7398 38.0701 81.8055 0.477952 -0.0562988 0.876399
9.86166 38.2648 82.2681 0.4436 -0.0625283 0.89404
8.86684 38.3678 82.7645 0.427016 -0.0597402 0.902209
7.34011 38.3377 83.4622 0.36927 -0.103916 0.921166
6.32438 38.2895 83.7686 0.279393 -0.127114 0.951717
5.01154 38.2313 84.1271 0.255296 -0.109391 0.960611
3.46297 38.1948 84.4773 0.201556 -0.113495 0.972836
2.02509 38.1364 84.6463 0.0826561 -0.0701681 0.994105
0.754107 37.8885 84.7352 0.0813052 -0.0831452 0.993123
-0.720177 37.5611 84.6713 -0.0196981 -0.1209 0.992467
-1.78462 37.408 84.5963 -0.06095 -0.133265 0.989202
-3.00457 37.2672 84.4393 -0.203799 -0.1148 0.972109
-4.20655 37.148 84.1832 -0.194692 -0.10574 0.975119
-5.3277 37.0871 83.9064 -0.236229 -0.106118 0.965877
-6.33852 37.0138 83.6193 -0.318753 -0.13032 0.937712
-7.83654 36.945 83.0213 -0.373635 -0.115864 0.920283
-8.94806 36.9265 82.5437 -0.410314 -0.0970093 0.906707
-10.3729 37.0901 81.8764 -0.472611 -0.124026 0.871871
-11.8177 37.0711 80.9947 -0.529052 -0.0951329 0.84324
-12.7514 36.9585 80.3897 -0.567782 -0.0692122 0.819567
-13.9777 36.7972 79.4546 -0.608353 -0.0693516 0.790597
-14.879 36.1801 78.7139 -0.598736 -0.0751777 0.79741
-15.4611 35.3027 78.2254 -0.580764 -0.0568709 0.812083
-16.1431 33.7014 77.6428 -0.636261 -0.0132944 0.771359
-16.391 32.7024 77.4235 -0.62053 -5.05478e-05 0.784158
-16.8229 30.8356 77.0652 -0.618168 -0.00831775 0.786002
-17.0299 29.8117 76.8846 -0.567493 -0.0467254 0.822052
-17.373 28.6141 76.582 -0.575475 -0.0290378 0.81719
-17.7902 27.4961 76.2246 -0.611787 -0.0374305 0.790129
-18.2542 26.6441 75.8296 -0.605846 -0.0334946 0.794877
-18.8359 25.4325 75.3455 -0.600874 -0.0215397 0.799053
-19.3619 24.479 74.9295 -0.600532 -0.0171618 0.799416
-20.1421 23.6716 74.3254 -0.600894 -0.011253 0.799232
-21.0429 23.0977 73.6175 -0.625046 -0.0141824 0.780459
-21.6876 23.637 73.1234 -0.618922 -0.0232186 0.785109
-22.5939 24.9484 72.4273 -0.639561 -0.0234075 0.768384
-23.1852 26.6002 71.9754 -0.641041 -0.0107191 0.76741
-23.2919 27.6752 71.8916 -0.640765 -0.00309003 0.767731
-23.3034 28.7255 71.8898 -0.634774 0.0015694 0.772639
-22.8525 30.4385 72.2341 -0.631526 0.010557 0.77528
-22.3114 31.5706 72.6325 -0.62853 0.0314685 0.777148
-21.4157 32.7162 73.2924 -0.614991 0.0452562 0.787234
-20.6498 33.4529 73.845 -0.613403 0.05355 0.787948
-19.8805 34.0605 74.4286 -0.667257 0.0893488 0.739449
-19.1336 34.5608 75.0705 -0.686039 0.0579949 0.725111
-18.4441 34.962 75.6834 -0.680596 0.0583244 0.730258
-17.4502 35.4372 76.5468 -0.660308 0.0360341 0.750127
-16.7248 35.8582 77.1748 -0.652316 -0.0184836 0.757566
-16.0375 36.3187 77.7986 -0.660396 -0.0345455 0.750095
-15.4528 37.0647 78.3511 -0.631635 -0.0461694 0.77311
-14.9806 37.9929 78.7741 -0.613006 -0.0589596 0.787811
-14.6264 38.8786 79.1285 -0.621336 -0.0594499 0.781244
-14.3589 39.9803 79.4027 -0.621332 -0.0413603 0.782453
-13.9722 41.7316 79.8116 -0.629237 -0.0449142 0.775915
-13.7484 42.8835 80.0454 -0.653871 -0.0358051 0.755756
-13.5183 43.8543 80.2889 -0.649155 -0.0317374 0.759968
-13.1498 44.7614 80.6402 -0.632144 -0.0230321 0.774209
-12.7252 45.6006 80.9843 -0.600732 -0.0102478 0.798954
-11.8462 46.9883 81.6579 -0.595731 -0.014558 0.802818
-10.9244 48.1637 82.2809 -0.531257 -0.0113586 0.84697
-10.1049 48.8305 82.7896 -0.516339 -0.0333333 0.855594
-10.3405 49.5349 82.6676 -0.55071 -0.00816605 0.8345
-11.1483 48.9309 82.1368 -0.546102 0.00330723 0.837649
-12.0374 47.8514 81.5119 -0.600168 -0.0141136 0.799601
-12.695 46.833 81.0206 -0.614171 -0.00493216 0.789009
-13.4953 45.4857 80.3707 -0.625736 -0.00168369 0.780024
-14.05 44.2583 79.8537 -0.64826 -0.0393959 0.760398
-14.3249 42.8385 79.5428 -0.654176 -0.0373814 0.755417
-14.5519 41.7817 79.3124 -0.653994 -0.0208073 0.756214
-14.9371 40.1531 78.9497 -0.643645 -0.0138827 0.765191
-15.3027 38.7757 78.5794 -0.649067 -0.0489011 0.758478
-15.7146 37.7706 78.1596 -0.658431 -0.0407425 0.751537
-16.2588 37.0826 77.6462 -0.658446 -0.0397145 0.751578
-17.2489 36.3339 76.6874 -0.689736 6.63633e-05 0.723126
-18.0321 35.9856 76.0082 -0.660308 0.0360341 0.750127
-19.0935 35.375 75.0234 -0.695426 0.0831961 0.713761
-19.8005 34.922 74.4062 -0.616162 0.0785277 0.78326
-20.8749 34.1141 73.6241 -0.611448 0.0559748 0.789302
-21.5685 33.4879 73.1247 -0.615133 0.0517647 0.786722
-22.6646 32.1625 72.3171 -0.637616 0.0363113 0.769498
-23.1435 31.2823 71.9612 -0.641321 0.0326668 0.766558
-23.582 30.0744 71.6363 -0.645134 0.0280048 0.763556
-23.8612 28.4783 71.4239 -0.640062 -0.0056576 0.768302
-23.8172 27.4264 71.4515 -0.640554 -0.00501283 0.767894
-23.697 26.1424 71.5335 -0.645524 -0.0168583 0.763553
-23.3933 25.1403 71.7674 -0.642622 -0.0204277 0.765897
-22.7199 24.0587 72.2924 -0.640361 -0.0281305 0.767558
-22.0829 23.1254 72.7857 -0.638348 -0.0307487 0.769134
-21.2099 21.9941 73.4579 -0.629157 -0.0276185 0.776787
-20.4079 22.5801 74.1167 -0.611724 -0.0113065 0.7908
-19.3431 23.4358 74.9204 -0.598938 -0.0131269 0.800672
-18.7716 24.1613 75.364 -0.598635 -0.0176845 0.800827
-18.1877 25.4106 75.8332 -0.59341 -0.0202578 0.804581
-17.7018 26.3626 76.2389 -0.607275 -0.0359536 0.793672
-16.9217 27.9458 76.8619 -0.567525 -0.0390916 0.822427
-16.474 29.5341 77.2525 -0.56759 -0.0466278 0.82199
-16.1513 31.021 77.5578 -0.572755 -0.0304403 0.819046
-15.9165 32.0636 77.7481 -0.578239 -0.0194801 0.815635
-15.6809 33.0823 77.9553 -0.5849 -0.0349821 0.810351
-15.1146 34.6375 78.4311 -0.58491 -0.034672 0.810356
-14.637 35.4264 78.8234 -0.589223 -0.0667733 0.80507
-13.5451 36.108 79.7259 -0.612269 -0.0746586 0.787116
-12.4687 36.2103 80.4992 -0.530527 -0.0736041 0.844466
-11.4052 36.3403 81.1514 -0.508124 -0.109313 0.854097
-10.2966 36.3463 81.8117 -0.471951 -0.125175 0.87207
-9.22836 36.2038 82.3196 -0.426669 -0.133911 0.894347
-8.28504 36.161 82.7318 -0.38488 -0.131825 0.913434
-7.18335 36.2399 83.1973 -0.369025 -0.115297 0.922168
-6.23173 36.3106 83.542 -0.278378 -0.147624 0.949058
-4.941 36.3819 83.9302 -0.260056 -0.121632 0.957388
-3.66715 36.4685 84.222 -0.201025 -0.109414 0.973453
-2.48146 36.5965 84.4497 -0.11337 -0.130956 0.983235
-1.34483 36.7311 84.5312 -0.0544 -0.124468 0.990677
-0.190347 36.9226 84.6021 -0.0172366 -0.123978 0.992134
0.95937 37.1908 84.6511 0.0335119 -0.111142 0.992083
2.65417 37.4618 84.5412 0.0981628 -0.11721 0.987945
3.64985 37.4627 84.3537 0.202052 -0.109132 0.973223
4.72158 37.4955 84.1268 0.209321 -0.112162 0.971389
6.57113 37.5833 83.6021 0.281554 -0.128372 0.950913
7.71717 37.6458 83.2209 0.324939 -0.147873 0.934102
9.34556 37.61 82.4772 0.436537 -0.0608229 0.897606
10.4102 37.3751 81.9271 0.458666 -0.0852782 0.88436
11.3847 37.1572 81.3693 0.491541 -0.06926 0.868096
12.5052 36.8339 80.6539 0.545094 -0.0885847 0.833679
13.8677 36.623 79.7416 0.563025 -0.0624153 0.823101
14.8453 36.7223 79.0407 0.617798 -0.0333019 0.784495
15.8891 37.287 78.1691 0.654411 -0.029869 0.755528
16.6958 38.5515 77.494 0.669524 -0.0259578 0.742337
17.0133 39.5628 77.2565 0.669693 -0.0353759 0.741792
16.9964 41.3527 77.2921 0.667667 0.0122712 0.744359
16.7318 42.5134 77.5078 0.668395 0.0132757 0.743687
16.4462 43.5157 77.7425 0.683744 0.0138296 0.729525
16.0099 44.3813 78.1484 0.687933 0.00648354 0.725744
15.5358 45.171 78.5926 0.673771 0.00877723 0.738734
14.6232 46.1903 79.4121 0.659614 -0.010667 0.751525
13.8647 46.8912 80.0006 0.615148 0.0306443 0.787815
13.1137 47.5279 80.5695 0.599352 -0.011078 0.800334
12.2458 48.2497 81.2228 0.593081 -0.0179011 0.804944
11.5129 48.9752 81.7636 0.584368 -0.0090269 0.811439
10.6033 49.8167 82.4071 0.521134 -0.00615772 0.851821
9.66031 50.1133 82.9255 0.473381 -0.0212049 0.8806
8.38478 50.1555 83.5512 0.409229 -0.0123585 0.912348
7.15622 50.1391 84.1018 0.399401 -0.000199169 0.916635
5.86992 50.1404 84.5196 0.2968 -0.000399526 0.954924
4.83133 50.1476 84.8274 0.255499 0.00444591 0.966625
3.05491 50.0943 85.1927 0.166382 0.0131163 0.98592
2.06689 50.054 85.3538 0.136474 0.0239141 0.99007
0.707494 50.066 85.506 0.107223 0.0189175 0.994053
-1.03345 50.0896 85.5326 -0.0258647 0.00354161 0.999652
-2.1563 50.1091 85.4765 -0.0578605 0.00447547 0.998311
-3.28749 50.0806 85.3419 -0.176577 -0.0410587 0.983344
-4.4845 50.0918 85.0779 -0.282179 -0.0253423 0.959023
-5.5619 50.0994 84.7591 -0.281806 -0.0313535 0.958948
-6.85208 50.0907 84.3342 -0.322123 -0.0158078 0.946566
-8.29026 50.1568 83.7636 -0.43541 -0.0121589 0.900149
-9.31959 50.0075 83.2604 -0.440599 -0.0191945 0.897487
-9.98069 49.7536 82.9003 -0.521468 -0.000312284 0.852976
-10.1101 50.4998 82.8175 -0.517054 0.00810733 0.855757
-9.22507 50.8098 83.3239 -0.463698 -0.00503534 0.885306
-8.04274 50.8851 83.892 -0.431946 -0.0142569 0.901775
-6.85324 50.8118 84.3544 -0.343079 -0.0325977 0.938668
-5.82752 50.834 84.7087 -0.27925 -0.0347376 0.95959
-4.46928 50.816 85.0998 -0.277491 -0.0287173 0.960276
-3.07204 50.7955 85.3646 -0.120042 0.0222476 0.992512
-1.99327 50.8344 85.4843 -0.0827326 0.013477 0.996085
-0.735728 50.8 85.5465 -0.0375757 -0.000885561 0.999207
0.588099 50.7779 85.504 0.10305 0.0249079 0.994345
1.9437 50.7815 85.3529 0.112363 0.0211749 0.993441
3.03 50.7803 85.1945 0.157386 0.00452434 0.98744
4.19047 50.8322 84.9751 0.240466 0.0175856 0.970498
5.21924 50.8593 84.7183 0.267834 0.00848145 0.96303
6.5771 50.8372 84.2921 0.308293 0.00560431 0.951272
7.83474 50.8256 83.8058 0.387423 0.00544855 0.92186
8.98107 50.86 83.2753 0.448892 -0.000829573 0.893585
9.95449 50.8329 82.7842 0.463092 -0.0112246 0.886071
11.3013 50.2257 81.9251 0.563665 0.0116991 0.825921
12.3179 49.0881 81.1852 0.58435 -0.00920047 0.81145
13.0113 48.4484 80.6562 0.60668 -0.00985316 0.794885
13.7774 47.8452 80.0632 0.610124 -0.00980962 0.792245
14.6104 47.0703 79.4098 0.614159 0.00952435 0.788822
15.3741 46.3535 78.7347 0.692418 0.00763487 0.721457
16.193 45.3105 77.9669 0.688497 0.00911306 0.725174
16.817 44.1136 77.3876 0.686333 0.00671542 0.727256
17.2235 42.9081 77.0274 0.69583 0.00759797 0.717972
17.4471 41.9112 76.8084 0.716485 0.0271489 0.697038
17.5899 40.9243 76.6944 0.733304 0.0135982 0.679301
17.5884 39.6662 76.6915 0.745792 -0.000140754 0.666179
17.31 38.4135 76.9351 0.668336 -0.0301051 0.743238
16.8714 37.5008 77.3079 0.65035 0.0178355 0.759425
16.2304 36.6413 77.8735 0.63768 0.0131973 0.770069
15.559 36.138 78.4223 0.625847 0.0120856 0.77985
14.7853 35.9143 79.0537 0.617798 -0.0333019 0.784495
13.8961 35.853 79.6372 0.54226 -0.0926204 0.83509
12.8451 35.9688 80.3331 0.544241 -0.0926214 0.833793
11.8141 36.2954 81.0454 0.544337 -0.096814 0.83326
10.9426 36.5022 81.5502 0.472978 -0.0911927 0.876341
10.0433 36.6864 82.049 0.446383 -0.0808414 0.891181
8.6843 36.9208 82.7507 0.43223 -0.0979373 0.896098
7.48416 36.9254 83.1879 0.324939 -0.147873 0.934102
6.48707 36.8407 83.5247 0.304084 -0.136472 0.942448
5.23588 36.7596 83.8781 0.273756 -0.13574 0.952169
4.03411 36.7009 84.178 0.221144 -0.128036 0.966799
3.01917 36.7492 84.4032 0.156187 -0.116825 0.979974
2.01996 36.6903 84.5097 0.0817436 -0.103369 0.99127
0.427201 36.335 84.5375 -0.0130055 -0.122523 0.992379
-1.23986 36.004 84.4526 -0.0427668 -0.124961 0.991147
-2.31959 35.8835 84.3745 -0.115151 -0.128032 0.983423
-4.02775 35.6745 84.0561 -0.158339 -0.119783 0.979886
-5.51021 35.6402 83.6549 -0.28404 -0.120252 0.95124
-6.78149 35.5744 83.2647 -0.282826 -0.133409 0.949718
-7.88626 35.4175 82.7836 -0.386555 -0.145957 0.910643
-8.81079 35.3688 82.3801 -0.421914 -0.147879 0.894494
-10.0387 35.5743 81.8319 -0.434849 -0.136635 0.889958
-11.5105 35.5221 81.002 -0.495509 -0.100147 0.862763
-12.8131 35.4422 80.2106 -0.512492 -0.101745 0.852633
-13.6031 35.287 79.6029 -0.612269 -0.0746586 0.787116
-14.396 34.5661 78.9467 -0.576358 -0.0375596 0.816263
-14.9828 33.3808 78.4723 -0.584901 -0.0349371 0.810352
-15.2454 32.2679 78.2373 -0.584672 -0.0310552 0.810675
-15.5059 31.0466 78.0048 -0.567978 -0.0421772 0.821962
-15.7169 30.0828 77.8081 -0.568681 -0.0471131 0.821208
-16.0406 28.7738 77.5092 -0.564542 -0.0528725 0.823673
-16.3646 27.6208 77.2281 -0.565048 -0.0398935 0.824093
-16.8788 26.4665 76.8181 -0.565556 -0.0431554 0.82358
-17.5373 25.3492 76.3076 -0.58262 -0.0441324 0.811267
-17.8916 24.4637 76.0101 -0.573917 -0.0437587 0.817742
-18.3637 23.4971 75.6258 -0.573686 -0.0476629 0.817687
-18.9833 22.814 75.1598 -0.57413 -0.034089 0.818047
-20.2071 21.8738 74.2532 -0.578446 -0.0355437 0.814946
-20.8873 21.2339 73.6903 -0.621867 -0.038141 0.782193
-21.4634 20.5476 73.1988 -0.621334 -0.035712 0.782727
-21.6544 20.5167 73.0452 -0.629761 -0.0270347 0.776279
-22.0325 21.6902 72.7753 -0.635352 -0.0278975 0.771719
-22.4809 22.6394 72.4365 -0.637254 -0.025186 0.770242
-23.3448 23.8528 71.7636 -0.637634 -0.0269297 0.769861
-23.9769 24.9797 71.2682 -0.647658 -0.0155694 0.761766
-24.2614 26.0453 71.052 -0.648124 -0.018033 0.761321
-24.3472 27.1512 71.0045 -0.647389 -0.00531033 0.762039
-24.4127 28.2293 70.9478 -0.657742 -0.00264335 0.753238
-24.1959 29.9294 71.1229 -0.652781 0.0229088 0.757119
-23.8958 30.8662 71.3437 -0.638719 0.0287679 0.768874
-23.481 31.9728 71.6492 -0.641328 0.0328824 0.766542
-22.9234 32.8764 72.069 -0.637616 0.0363014 0.769498
-22.1583 33.7941 72.6402 -0.61943 0.0539066 0.783199
-21.3024 34.6286 73.257 -0.612984 0.0539967 0.788243
-20.2794 35.3867 73.966 -0.613896 0.102745 0.782663
-19.5749 35.8681 74.5186 -0.667792 0.062637 0.741707
-18.7568 36.3809 75.2534 -0.701159 0.0629128 0.710223
-17.9625 36.7879 76.0181 -0.687596 0.050914 0.723684
-17.1381 37.2209 76.834 -0.703814 -0.0290982 0.709788
-16.4077 37.8989 77.5583 -0.66167 -0.0326063 0.749045
-15.9186 38.732 78.0228 -0.663627 -0.0278764 0.747541
-15.5596 39.8995 78.4217 -0.655937 -0.0412295 0.753301
-15.3767 40.9105 78.5935 -0.645333 -0.0100998 0.763834
-15.0379 42.2259 78.9044 -0.650495 -0.01822 0.759271
-14.8416 43.3563 79.1221 -0.649487 -0.0430663 0.759115
-14.6797 44.3421 79.3248 -0.640409 -0.0444834 0.766697
-14.09 45.6935 79.8904 -0.638388 -0.0191909 0.769149
-13.6311 46.539 80.2659 -0.628041 -0.0120469 0.778076
-13.1213 47.3224 80.6919 -0.614171 -0.00493216 0.789009
-12.6192 48.1497 81.0887 -0.598659 -0.0300686 0.800438
-12.0303 49.0299 81.5378 -0.561431 0.0190182 0.827305
-11.2023 49.7706 82.0825 -0.5592 -0.000794995 0.828778
-10.3646 50.3677 82.6603 -0.544641 -0.0029363 0.838338
-10.8044 50.9257 82.3767 -0.553236 -0.0134821 0.832897
-11.6412 50.3238 81.8022 -0.561242 -0.0190001 0.827415
-12.541 49.5586 81.1794 -0.559613 0.00498677 0.82862
-13.0113 48.7313 80.8057 -0.652649 -0.00451007 0.75762
-13.4599 47.9221 80.4144 -0.651978 0.00350093 0.7582
-14.0122 47.0737 79.9557 -0.647087 0.0110367 0.762337
-14.6059 45.9705 79.4327 -0.681506 0.00582096 0.731093
-15.0906 44.9836 79.0105 -0.652831 -0.0358246 0.756524
-15.4087 43.9151 78.6817 -0.653342 -0.0435687 0.755628
-15.5282 42.6715 78.4972 -0.647363 -0.0323272 0.7613
-15.7863 41.6782 78.2584 -0.656065 -0.0203716 0.754319
-16.0246 40.7077 78.035 -0.68043 -0.0190427 0.73235
-16.1532 39.6131 77.8545 -0.671043 -0.0433255 0.740051
-16.5425 38.767 77.468 -0.664433 -0.026363 0.746881
-17.2722 37.9362 76.7235 -0.707378 -0.0197686 0.706559
-18.4021 37.3884 75.5353 -0.72159 0.0161628 0.691139
-19.1022 36.9905 74.8599 -0.704005 0.054615 0.708043
-20.2262 36.2362 73.8984 -0.641535 0.0824143 0.761495
-21.0071 35.6865 73.3619 -0.60365 0.0951099 0.791556
-22.206 34.6677 72.5422 -0.619132 0.0682969 0.782192
-22.833 34.0092 72.0907 -0.629388 0.0453907 0.775636
-23.6609 32.8805 71.4573 -0.630765 0.032183 0.77524
-24.2191 31.7575 71.0391 -0.626295 0.0166704 0.779408
-24.5294 30.6825 70.8212 -0.645729 0.0176123 0.763312
-24.8133 29.6349 70.5954 -0.653631 0.011307 0.756721
-24.9556 28.4788 70.476 -0.651153 0.00175729 0.758914
-24.9126 27.1742 70.5244 -0.647389 -0.00531033 0.762039
-24.8038 25.8765 70.5854 -0.648755 -0.0197214 0.760741
-24.538 24.782 70.7883 -0.648128 -0.0125053 0.761429
-24.0921 23.7586 71.1449 -0.636358 -0.025205 0.770981
-23.5032 22.9811 71.6038 -0.635107 -0.026881 0.771956
-22.9135 22.1773 72.0635 -0.637254 -0.025186 0.770242
-22.3458 20.9135 72.4893 -0.634582 -0.0233279 0.772489
-22.2947 19.1548 72.4734 -0.626046 -0.0322605 0.779119
-22.5053 18.0861 72.256 -0.621382 -0.0413499 0.782409
-22.9913 17.0474 71.8324 -0.628273 -0.0267296 0.777424
-23.5621 16.3765 71.3327 -0.636766 -0.0300583 0.770471
-24.6423 15.2219 70.3789 -0.655041 -0.0252699 0.75517
-25.2068 14.1996 69.8547 -0.658831 -0.0247944 0.751882
-25.561 13.0907 69.5095 -0.655203 -0.0269459 0.754957
-25.664 11.8934 69.3765 -0.655427 -0.0280326 0.754719
-25.4787 10.5727 69.4883 -0.656588 -0.0181722 0.753964
-24.7711 9.29083 70.0797 -0.652304 -0.0144809 0.757819
-23.6527 8.34246 71.0031 -0.634197 -0.01347 0.773053
-22.6239 7.91333 71.832 -0.62745 -0.0212608 0.778366
-21.7115 7.66235 72.555 -0.619926 -0.0171555 0.784464
-20.8307 8.21831 73.2531 -0.606444 -0.0227532 0.794801
-19.8397 9.0692 74.036 -0.606532 -0.0234137 0.794713
-19.1088 10.0979 74.5652 -0.565664 -0.0273381 0.824182
-18.6813 10.9777 74.8881 -0.560829 -0.0259844 0.827501
-18.4609 12.2908 75.0922 -0.552751 -0.0400905 0.832381
-18.5472 13.6187 75.1032 -0.567311 -0.033886 0.822594
-18.8091 14.6893 74.9504 -0.583575 -0.0278421 0.811573
-19.2831 15.5811 74.6379 -0.588263 -0.0403198 0.807662
-19.9289 16.4873 74.208 -0.59852 -0.0454898 0.799815
-20.531 17.4176 73.7913 -0.622379 -0.0344339 0.781927
-20.885 18.3727 73.5615 -0.620023 -0.0390483 0.783603
-20.876 19.7343 73.6292 -0.620492 -0.033829 0.783483
-20.3069 20.8655 74.1338 -0.62187 -0.0379908 0.782199
-19.5216 21.5396 74.7252 -0.578446 -0.0355437 0.814946
-18.7894 22.0474 75.2634 -0.573148 -0.0351243 0.818694
-17.8904 22.9571 75.9263 -0.571765 -0.0405153 0.819386
-17.4396 23.8893 76.2925 -0.556341 -0.0447951 0.829746
-17.0502 24.8086 76.6043 -0.557224 -0.0500206 0.828844
-16.1513 26.3683 77.3122 -0.544138 -0.0524724 0.837167
-15.6288 27.9258 77.7357 -0.550966 -0.0432936 0.83339
-15.2804 29.1018 78.047 -0.557903 -0.0613102 0.827633
-14.9862 30.4676 78.3336 -0.563097 -0.0425661 0.825275
-14.7567 31.5887 78.5446 -0.559758 -0.0432771 0.827522
-14.5549 32.7028 78.7414 -0.56438 -0.0467545 0.824176
-14.2559 33.6327 78.9981 -0.568398 -0.0402121 0.82177
-13.6955 34.3787 79.4349 -0.60881 -0.0846891 0.788782
-12.9611 34.695 80.0359 -0.559729 -0.0915966 0.821437
-11.9236 34.672 80.6514 -0.508075 -0.101048 0.855346
-11.0574 34.769 81.1657 -0.489514 -0.107694 0.865319
-9.62882 34.7347 81.8989 -0.406837 -0.114747 0.906265
-8.68697 34.5602 82.3053 -0.404545 -0.147366 0.902358
-7.52983 34.7592 82.8324 -0.39029 -0.137758 0.910327
-6.02132 34.9199 83.4124 -0.297042 -0.134307 0.945155
-4.91264 34.9185 83.7424 -0.26525 -0.129145 0.955254
-3.89084 34.9794 84.0073 -0.198711 -0.108047 0.973124
-2.35505 35.1475 84.2703 -0.124203 -0.151241 0.978751
-1.25028 35.2662 84.3451 -0.037425 -0.145768 0.988611
-0.175474 35.4483 84.4058 -0.00549387 -0.147264 0.98908
1.00095 35.7621 84.4666 0.0185774 -0.173978 0.983458
2.36828 36.0061 84.3744 0.111716 -0.150508 0.982239
3.59699 35.933 84.1761 0.189562 -0.14406 0.970789
5.16624 36.006 83.789 0.274952 -0.137869 0.951522
6.29125 36.0909 83.486 0.276186 -0.10894 0.954744
7.28507 36.2308 83.181 0.312171 -0.0881628 0.945926
8.25514 36.2487 82.8625 0.364404 -0.102881 0.923656
9.57639 36.0339 82.2227 0.433035 -0.098729 0.89569
10.7465 35.8097 81.5891 0.468336 -0.07205 0.880607
11.7298 35.537 81.0115 0.542196 -0.0913707 0.835243
12.8719 35.13 80.2261 0.537104 -0.0624323 0.840789
13.7429 35.0757 79.6767 0.531834 -0.0339489 0.846168
14.9626 35.1632 78.8871 0.590184 -0.0414971 0.805522
16.2922 35.7548 77.8372 0.638243 0.0123827 0.769621
16.9096 36.4284 77.2992 0.659195 0.0154454 0.751669
17.4322 37.2215 76.833 0.650995 0.0173812 0.758883
17.8645 38.2718 76.3815 0.736245 0.0222298 0.67611
18.077 39.2467 76.1444 0.745601 -0.00226581 0.666385
18.138 40.6077 76.0778 0.746333 -0.00303804 0.665565
17.9918 41.9278 76.221 0.734403 0.00948367 0.678411
17.7762 42.9562 76.4606 0.732224 0.00343936 0.681014
17.5005 44.0096 76.7454 0.709885 0.00880713 0.703351
16.8743 45.2916 77.3195 0.687654 0.0105502 0.72596
16.2194 46.3698 77.9256 0.688753 0.00729795 0.724957
15.1162 47.4183 78.9815 0.675906 0.00615373 0.736515
14.4217 48.1635 79.572 0.635106 0.00411189 0.771532
13.4843 48.9186 80.3009 0.60684 -0.0135199 0.7947
12.7842 49.5534 80.8467 0.599809 -0.00974884 0.800026
12.0165 50.472 81.4168 0.587981 -0.00533698 0.808843
11.2104 51.3254 81.975 0.562625 0.0019737 0.82671
10.0181 51.5303 82.7471 0.479846 0.028482 0.876196
8.59476 51.5579 83.4675 0.433261 0.0159842 0.900919
7.36452 51.509 84.0028 0.373692 0.0125001 0.927289
6.25926 51.5439 84.3889 0.307047 0.010938 0.95163
4.53029 51.5685 84.8801 0.244887 0.0038667 0.969544
3.2862 51.5103 85.1662 0.168022 -0.00819123 0.985612
1.64303 51.4861 85.3997 0.112249 -0.0186371 0.993427
0.0117618 51.5117 85.5567 0.0544858 -0.000373912 0.997609
-1.10156 51.5062 85.5241 -0.0450998 0.00137384 0.998981
-2.7302 51.5131 85.4016 -0.114135 -0.0203618 0.993252
-3.72635 51.5244 85.2828 -0.14549 -0.00145159 0.988834
-4.96449 51.5572 84.9816 -0.263241 0.00344441 0.964721
-5.96599 51.5788 84.6936 -0.306198 -0.032519 0.951022
-7.00091 51.5323 84.3166 -0.364267 0.00272287 0.931291
-8.19449 51.6672 83.8179 -0.422196 0.0132871 0.906405
-9.79757 51.4286 82.9959 -0.495176 -0.00137897 0.868763
-10.6694 51.0473 82.467 -0.533208 -0.0141249 0.845627
-11.196 51.472 82.1253 -0.550136 -0.00855998 0.83503
-12.4765 50.5893 81.2354 -0.584636 -0.00696202 0.810622
-13.3194 49.4416 80.5441 -0.647332 -0.0150395 0.761927
-13.7376 48.5986 80.1724 -0.651978 0.00350093 0.7582
-14.4665 47.6733 79.5614 -0.647152 0.0088258 0.762306
-14.914 46.8448 79.1638 -0.698841 -0.0191633 0.714991
-15.5595 45.6415 78.5389 -0.700036 0.0438058 0.712727
-15.9348 44.6221 78.2384 -0.69011 0.00534797 0.722554
-16.1763 43.5995 77.9957 -0.658513 -0.0243946 0.751987
-16.38 41.73 77.7313 -0.66477 -0.0233983 0.746678
-16.6955 40.8561 77.4018 -0.701356 -0.0288883 0.712226
-16.6112 39.8911 77.4378 -0.691322 -0.0297524 0.721874
-17.1586 38.9016 76.8661 -0.705329 -0.0263624 0.708389
-17.8272 38.4396 76.1815 -0.721122 -0.0163828 0.692335
-18.9641 37.8488 74.9389 -0.720631 0.0165847 0.692123
-19.7193 37.4312 74.265 -0.670921 0.0518666 0.739696
-20.5377 36.9943 73.5713 -0.571328 0.101351 0.813245
-21.1834 36.3304 73.1498 -0.603905 0.0951985 0.79135
-21.949 35.9522 72.6126 -0.610832 0.0870404 0.78686
-23.0086 34.7355 71.8932 -0.612477 0.0691486 0.787276
-23.7721 33.8685 71.333 -0.623331 0.0288997 0.781423
-24.699 32.3163 70.6413 -0.623735 0.0205697 0.781365
-25.1531 31.0975 70.2936 -0.635488 0.0039488 0.772101
-25.4243 30.0302 70.0718 -0.639876 0.000832827 0.768476
-25.654 29.0259 69.8747 -0.651936 -0.00171457 0.758211
-25.5295 27.203 70.0005 -0.647322 -0.00535233 0.76209
-25.3919 25.3684 70.0634 -0.660447 -0.0192552 0.750583
-25.0699 24.2845 70.3238 -0.654585 -0.0154759 0.75583
-24.6149 23.3349 70.6975 -0.647632 -0.0261494 0.761421
-24.0128 22.6299 71.1719 -0.638175 -0.0285935 0.769349
-23.448 21.6304 71.6034 -0.636898 -0.0256715 0.77052
-22.8611 20.5473 72.0581 -0.629611 -0.0183968 0.776674
-22.9395 19.2968 71.9613 -0.624552 -0.027494 0.780484
-23.2499 17.7527 71.6488 -0.635247 -0.0362624 0.771346
-23.847 17.0381 71.1207 -0.644885 -0.0227372 0.763941
-24.4776 16.4441 70.5666 -0.650792 -0.0274174 0.758737
-25.3966 15.3047 69.7261 -0.657942 -0.0252509 0.752643
-25.8312 14.3869 69.3137 -0.659113 -0.0243021 0.75165
-26.0662 13.3292 69.0754 -0.662086 -0.0252163 0.748982
-26.2257 12.0574 68.8905 -0.662155 -0.0266587 0.748874
-26.2148 10.4803 68.8413 -0.660813 -0.0149739 0.750336
-25.6085 9.38679 69.3623 -0.653774 -0.0114434 0.756588
-25.0745 8.54013 69.8024 -0.65358 -0.0203418 0.756584
-24.3443 7.96614 70.4168 -0.650186 -0.0167833 0.75958
-23.4587 7.3862 71.1442 -0.630501 -0.0175382 0.775974
-22.7081 7.09895 71.7419 -0.627431 -0.021151 0.778385
-21.652 6.6075 72.5802 -0.625018 -0.0142163 0.78048
-20.9107 7.15569 73.1644 -0.605912 -0.0161323 0.795364
-20.1051 7.74751 73.7954 -0.607328 -0.0200529 0.794196
-19.171 8.76843 74.5014 -0.56321 -0.0110465 0.82622
-18.5475 9.49352 74.9292 -0.56268 -0.017672 0.82642
-18.1076 10.3746 75.2553 -0.555873 -0.023079 0.830947
-17.7829 11.3935 75.5006 -0.55387 -0.0308454 0.831991
-17.7301 12.5885 75.593 -0.554185 -0.0429435 0.831283
-17.8044 14.0482 75.6223 -0.554492 -0.0449341 0.830975
-18.2342 14.9391 75.3724 -0.583497 -0.0324539 0.811467
-18.8313 16.0134 74.9878 -0.587634 -0.0412681 0.808073
-19.422 17.0254 74.6082 -0.589359 -0.040254 0.806868
-20.0311 18.2979 74.2023 -0.588587 -0.0365668 0.807379
-20.2213 19.5839 74.1381 -0.595628 -0.0365389 0.802021
-19.6926 20.4782 74.5549 -0.578191 -0.03896 0.81497
-18.6914 21.218 75.2951 -0.573335 -0.0412131 0.818277
-17.7293 21.8466 75.9905 -0.568059 -0.0370405 0.822154
-17.166 22.653 76.4079 -0.551948 -0.040023 0.832877
-16.7231 23.8981 76.7734 -0.55598 -0.044866 0.829984
-16.0865 25.2074 77.2809 -0.558887 -0.053512 0.827515
-15.575 26.0181 77.6512 -0.532176 -0.0574099 0.844657
-14.9882 27.5911 78.1336 -0.549955 -0.0558383 0.833235
-14.7257 28.7012 78.3918 -0.540135 -0.0589478 0.839268
-14.4154 30.2965 78.7099 -0.544206 -0.0600274 0.836435
-14.1183 31.2208 78.9565 -0.558735 -0.0437061 0.828191
-13.8258 32.9253 79.2579 -0.56556 -0.0499429 0.823193
-13.0568 33.8417 79.8702 -0.609029 -0.0850174 0.788578
-12.1763 33.9333 80.4193 -0.501845 -0.102783 0.858798
-11.0719 34.0123 81.0625 -0.48901 -0.108897 0.865454
-9.45928 33.9126 81.8702 -0.406257 -0.115453 0.906436
-8.09499 33.8711 82.4657 -0.373132 -0.0986089 0.922521
-7.07298 34.0335 82.9204 -0.356038 -0.145897 0.922172
-5.99019 34.1123 83.298 -0.309287 -0.144109 0.939985
-4.89811 34.2034 83.6417 -0.247354 -0.139839 0.958781
-3.54804 34.2702 83.9901 -0.197367 -0.120263 0.971828
-2.14984 34.4597 84.1466 -0.0862673 -0.188381 0.978179
-1.06903 34.428 84.2035 -0.0518761 -0.194654 0.979499
0.466399 34.7796 84.3115 0.0336281 -0.153418 0.986528
1.6216 35.1462 84.3053 0.0583026 -0.195791 0.978909
2.73476 35.2226 84.1946 0.15781 -0.201138 0.966763
4.40076 35.216 83.8882 0.175929 -0.150193 0.972206
5.95261 35.3221 83.4934 0.257799 -0.103728 0.960611
7.04434 35.3768 83.1689 0.292861 -0.112869 0.94947
8.06257 35.4664 82.8528 0.364944 -0.100897 0.923708
9.086 35.482 82.3806 0.419367 -0.115207 0.900477
10.5932 35.123 81.6145 0.451011 -0.0954537 0.886915
11.9752 34.6796 80.7647 0.531633 -0.067871 0.843819
12.82 34.385 80.2245 0.528473 -0.0385486 0.848075
13.7245 34.2139 79.6516 0.536624 -0.0423589 0.842756
14.5291 34.3085 79.129 0.565445 -0.0531278 0.823073
15.6918 34.6062 78.3009 0.612628 -0.0276713 0.789885
16.5428 34.9825 77.6364 0.647921 -0.00255917 0.761605
17.3105 35.9469 76.9482 0.665436 0.0251812 0.745961
17.8789 36.8571 76.4054 0.69795 0.00612761 0.716111
18.4506 38.1918 75.7498 0.735602 0.03928 0.676275
18.6203 39.2918 75.5447 0.740409 0.00615798 0.672128
18.7212 40.3788 75.4207 0.753237 -0.000994664 0.657746
18.6211 41.7671 75.535 0.752217 -0.003697 0.658898
18.4127 42.9273 75.7711 0.741167 0.0028397 0.67123
18.103 43.9026 76.093 0.734898 0.00906755 0.678116
17.7474 44.9961 76.4731 0.73403 -0.0101042 0.67893
17.3543 46.0287 76.8701 0.67666 -0.00286833 0.736283
16.7281 46.8075 77.4436 0.675559 -0.000515733 0.737304
16.1037 47.4569 78.0376 0.690305 -0.00810473 0.723471
15.3598 48.115 78.7473 0.671647 0.0193259 0.740457
14.4659 49.2731 79.508 0.657091 0.0164366 0.753618
13.7017 49.5116 80.1479 0.605718 -0.0166779 0.795504
13.0784 50.2602 80.6333 0.600304 -0.00702732 0.799703
12.1433 51.4722 81.3278 0.585005 0.00237467 0.810967
11.5508 52.1116 81.7415 0.570493 0.00525241 0.821215
10.5664 52.353 82.3818 0.507162 0.0448455 0.860683
9.63004 52.3481 82.9338 0.480881 0.0262625 0.875673
8.71874 52.3542 83.394 0.429363 0.012269 0.902972
7.57187 52.3601 83.9163 0.380278 -0.00210937 0.924273
5.81367 52.2457 84.5235 0.305737 0.00771927 0.952076
4.71483 52.308 84.8275 0.265946 0.0306637 0.9635
3.70026 52.3522 85.0876 0.219844 0.00300593 0.975169
2.3927 52.4014 85.3351 0.157859 -0.0310902 0.986166
1.23159 52.3666 85.4616 0.0944899 -0.0246333 0.995215
-0.417407 52.2857 85.5465 0.0177656 0.0249391 0.999528
-1.48445 52.302 85.5042 -0.0556613 0.00690416 0.998426
-3.17224 52.3536 85.3666 -0.142755 -0.0075054 0.989252
-4.18714 52.3406 85.1904 -0.21666 0.00542795 0.975002
-5.37077 52.2673 84.8662 -0.266754 0.00987885 0.9637
-6.56542 52.2722 84.4812 -0.348891 0.00308688 0.937155
-7.60353 52.3678 84.0809 -0.395023 0.00388169 0.917848
-9.08206 52.3709 83.3852 -0.427977 0.0247646 0.90345
-10.0337 52.1514 82.857 -0.504117 0.00210374 0.863619
-10.6801 52.1098 82.471 -0.532541 0.000137394 0.846107
-4.67088 43.4392 84.67 -0.217697 -0.0471851 0.974848
-3.34856 43.6158 84.9665 -0.205652 -0.0299041 0.978074
-2.20804 43.7272 85.1042 -0.0863483 -0.0420127 0.995379
-3.10881 43.1947 85.0016 -0.152886 -0.0441245 0.985312
-4.12458 42.8348 84.7615 -0.222238 -0.0521102 0.973599
-4.6939 42.8643 84.6333 -0.221789 -0.0526941 0.97367
-16.4841 35.0845 77.3725 -0.641435 0.00350066 0.767163
-17.4286 34.7042 76.5821 -0.64803 0.00828202 0.761529
-18.4132 34.1761 75.7637 -0.660687 0.0378897 0.749152
-19.2164 33.7437 75.0653 -0.669444 0.086156 0.737833
-20.317 32.8868 74.153 -0.650504 0.0440972 0.757903
-21.052 32.1807 73.6074 -0.615117 0.0453664 0.78713
-21.9211 31.0324 72.9699 -0.628086 0.031751 0.777496
-22.3503 30.1275 72.6457 -0.627916 0.0137402 0.77815
-22.7586 28.4023 72.3368 -0.626555 0.00219605 0.779327
-22.724 27.3879 72.363 -0.620815 -0.00084432 0.783956
-22.5563 26.3701 72.4951 -0.618724 -0.00258924 0.785598
-21.9749 25.1287 72.9328 -0.619688 -0.0146237 0.784712
-21.2643 24.2196 73.4724 -0.616497 -0.0165822 0.787183
-20.2178 24.5595 74.2856 -0.605885 -0.0119766 0.795462
-19.6277 25.3109 74.7471 -0.607338 -0.0204396 0.794138
-19.1561 26.2331 75.127 -0.598478 -0.0239943 0.800779
-18.6667 27.1568 75.5339 -0.608683 -0.0322283 0.792754
-18.2474 28.0039 75.8953 -0.613181 -0.0402325 0.788917
-17.8207 29.2598 76.2756 -0.595634 -0.0219998 0.802779
-17.5082 30.3397 76.5232 -0.616345 -0.00105947 0.787469
-17.2772 31.3763 76.7137 -0.618168 -0.00831775 0.786002
-17.062 32.3688 76.8916 -0.619322 -0.00611923 0.785114
-16.8084 33.4424 77.0902 -0.635851 -0.0130235 0.771702
-16.5272 34.4331 77.3387 -0.637922 -0.00567957 0.770035
-17.6363 33.6973 76.423 -0.631347 0.013293 0.775315
-17.6391 32.2965 76.4358 -0.620677 0.000650081 0.784035
-17.8644 31.3336 76.2499 -0.619835 -0.00672119 0.784703
-18.0899 30.364 76.064 -0.620389 -0.00141015 0.784277
-18.3842 29.3372 75.8269 -0.627673 -0.00684214 0.778444
-18.7182 28.4207 75.5505 -0.619087 -0.0231339 0.784763
-19.1279 27.5517 75.1986 -0.603512 -0.0339464 0.79663
-19.8063 26.29 74.6428 -0.598478 -0.0239943 0.800779
-20.3389 25.4762 74.2075 -0.607338 -0.0204396 0.794138
-21.3866 25.3979 73.4017 -0.617786 -0.0153628 0.786193
-21.9221 26.454 72.9929 -0.618003 -0.00488261 0.786159
-22.1652 27.6325 72.8055 -0.622478 -0.00232682 0.782629
-22.1578 28.7644 72.8182 -0.624518 -0.00566783 0.78099
-21.7407 30.032 73.1364 -0.624994 0.0163931 0.780458
-21.1451 31.0981 73.5912 -0.630748 0.0181806 0.77574
-20.5579 31.8211 74.0329 -0.637526 0.0562649 0.768371
-19.8361 32.4498 74.5978 -0.663902 0.0292149 0.747248
-18.875 33.1775 75.4075 -0.637392 0.0180029 0.77033
-17.99 33.4131 76.1348 -0.638545 0.0170528 0.769395
-18.6255 32.5177 75.6278 -0.636278 0.0138885 0.771334
-19.4926 31.8935 74.9238 -0.649985 0.0213484 0.759397
-20.2333 31.3112 74.3321 -0.633197 0.0231004 0.773646
-20.9275 30.335 73.7905 -0.636161 0.0195861 0.771307
-21.4806 29.1463 73.3636 -0.633483 0.00586918 0.773615
-21.6595 28.1499 73.2122 -0.626969 -0.00569629 0.779019
-21.3752 26.6532 73.4267 -0.625691 -0.0123436 0.77997
-20.6758 26.2584 73.977 -0.608641 -0.0284473 0.792936
-19.9773 27.2416 74.5431 -0.601363 -0.0284459 0.798453
-19.2109 28.7121 75.1686 -0.613053 -0.00983242 0.78998
-18.7285 30.1663 75.5611 -0.616326 0.00316269 0.78736
-18.4785 31.1485 75.7569 -0.632685 -0.000542238 0.774409
-18.3283 32.071 75.8807 -0.634528 0.00636866 0.772836
-19.2144 30.9084 75.162 -0.619452 0.0170089 0.78485
-19.3957 29.9379 75.04 -0.61576 0.00394297 0.787798
-19.7375 28.8308 74.7613 -0.613041 -0.0102624 0.789984
-20.2667 27.8397 74.3377 -0.621789 -0.00882083 0.783054
-21.0541 27.7939 73.6992 -0.628945 -0.00563369 0.777429
-20.8048 29.1955 73.9133 -0.630635 -0.00721862 0.776046
-20.368 30.1476 74.2562 -0.634247 0.0205587 0.772854
-19.7469 30.9751 74.7402 -0.626373 0.02007 0.779208
-21.8331 18.4025 72.8101 -0.621455 -0.0449208 0.782161
-21.2035 17.4286 73.2561 -0.62319 -0.0382853 0.781111
-20.6594 16.5168 73.6566 -0.626533 -0.0287402 0.778864
-20.1055 15.6938 74.0308 -0.598439 -0.0455492 0.799872
-19.4023 14.4718 74.5089 -0.595324 -0.0285727 0.802977
-19.139 13.423 74.6663 -0.594332 -0.0252388 0.803814
-19.0361 12.3339 74.6968 -0.580731 -0.0398887 0.813116
-19.3386 11.0093 74.4324 -0.575799 -0.0180448 0.817391
-19.8924 10.0498 74.0231 -0.592206 -0.0198817 0.805271
-20.4776 9.38088 73.5578 -0.609044 -0.020684 0.792864
-21.5721 8.55488 72.6803 -0.619422 -0.0198921 0.78478
-22.5489 8.62459 71.9115 -0.628052 -0.0195083 0.777818
-23.2935 8.9343 71.3061 -0.633313 -0.0095816 0.773836
-24.1209 9.55819 70.6312 -0.639101 -0.00569172 0.769102
-24.8047 10.5307 70.0684 -0.641636 -0.018347 0.766666
-25.1004 12.2419 69.873 -0.652185 -0.0254558 0.757632
-24.9315 13.2105 70.0562 -0.652059 -0.0301729 0.757567
-24.331 14.5287 70.6108 -0.638513 -0.0382972 0.768657
-23.3258 15.7489 71.5028 -0.636216 -0.036564 0.770644
-22.7442 16.4201 72.0104 -0.624966 -0.0248865 0.780102
-22.2336 17.2157 72.4317 -0.617436 -0.0265247 0.786166
-22.0164 17.5291 72.6145 -0.620535 -0.03621 0.783294
-21.9943 16.4342 72.5949 -0.616033 -0.0177549 0.78752
-20.8712 15.7772 73.4601 -0.613485 -0.0370608 0.788609
-20.1877 14.6878 73.9325 -0.597942 -0.0274504 0.80107
-19.7748 13.6653 74.2034 -0.595622 -0.0249521 0.802865
-19.6192 12.6489 74.2914 -0.594108 -0.0216774 0.804093
-20.0523 10.9478 73.927 -0.577008 -0.017824 0.816544
-20.6016 10.1889 73.4834 -0.608039 -0.0224086 0.793587
-21.3277 9.57953 72.9077 -0.614904 -0.0240148 0.788211
-22.2425 9.28733 72.1756 -0.628052 -0.0195083 0.777818
-23.0525 9.5929 71.5116 -0.635133 -0.011904 0.772309
-23.9936 10.4119 70.7438 -0.64019 -0.0191278 0.767872
-24.4218 11.3289 70.4229 -0.641702 -0.0315768 0.766304
-24.4233 12.6837 70.4726 -0.64446 -0.0255449 0.764134
-24.0305 13.789 70.8276 -0.636968 -0.0211097 0.770601
-23.5184 14.5865 71.2886 -0.637359 -0.037383 0.769658
-22.5172 15.7723 72.1707 -0.635721 -0.0340244 0.771165
-22.3972 15.9312 72.2694 -0.614738 -0.0175979 0.788535
-22.2059 15.191 72.3924 -0.622175 -0.0363993 0.781971
-23.0463 14.1613 71.6582 -0.632255 -0.0385221 0.773783
-23.7065 13.0077 71.074 -0.635464 -0.0227764 0.771791
-23.7797 11.3332 70.9596 -0.63411 -0.0262833 0.772796
-22.9777 10.3719 71.5861 -0.63608 -0.0190387 0.771362
-21.8213 10.1548 72.5374 -0.628153 -0.0193524 0.777739
-20.8193 10.9201 73.3364 -0.61039 -0.0220027 0.791796
-20.2726 11.9633 73.7869 -0.610289 -0.0228259 0.79185
-20.2806 13.1901 73.8169 -0.602603 -0.0220666 0.797674
-20.759 14.5031 73.4931 -0.612028 -0.0330788 0.790144
-21.6594 15.6273 72.8374 -0.616171 -0.0302303 0.787031
-21.7296 15.6304 72.7825 -0.61626 -0.0311129 0.786928
-21.904 14.4784 72.6026 -0.625101 -0.0322925 0.779784
-22.7715 13.5192 71.8557 -0.632291 -0.0246571 0.774339
-23.2099 12.7006 71.4716 -0.633979 -0.0243167 0.772968
-23.1554 11.6077 71.4813 -0.63375 -0.0256588 0.773112
-22.3683 10.8591 72.1042 -0.635555 -0.0251012 0.771647
-21.2197 11.4289 73.0421 -0.610163 -0.0223841 0.79196
-20.8053 12.3661 73.388 -0.610412 -0.0232652 0.791742
-20.8685 13.3631 73.3687 -0.610262 -0.0237619 0.791843
-21.4657 14.458 72.9456 -0.613163 -0.0293974 0.789394
-21.6632 13.553 72.761 -0.621389 -0.0236154 0.78303
-22.3432 13.0163 72.1896 -0.632048 -0.0240499 0.774556
-22.581 11.8169 71.9576 -0.633688 -0.0231622 0.773238
-21.839 11.8067 72.5649 -0.632615 -0.0217448 0.774161
-21.3226 12.9661 73.0066 -0.610806 -0.0232903 0.791437
-22.0434 5.16437 72.2502 -0.620901 -1.91204e-05 0.783889
-22.4937 4.30938 71.893 -0.627949 -0.00130124 0.778205
-23.1634 3.28569 71.3246 -0.640242 -0.0133749 0.768056
-23.8075 2.17409 70.7688 -0.644749 -0.0049437 0.764371
-24.5712 1.11438 70.0974 -0.662217 -0.00393535 0.749288
-24.7337 0.0724433 69.9574 -0.666776 0.00746943 0.745217
-24.9388 -1.31365 69.7801 -0.667064 -0.00104703 0.744997
-24.7511 -3.21487 69.9245 -0.657592 -0.0077277 0.753315
-24.2987 -4.50861 70.327 -0.661783 0.0120001 0.749599
-23.7017 -5.72926 70.8555 -0.637871 0.00901413 0.770078
-23.0763 -6.56306 71.3764 -0.638203 -0.00111037 0.769828
-22.0797 -7.50492 72.2133 -0.638242 0.0144096 0.769701
-21.3045 -7.92844 72.8579 -0.628085 0.0069802 0.778033
-20.379 -8.04865 73.579 -0.611318 0.0247415 0.790998
-19.4208 -8.03442 74.2719 -0.561125 0.0414778 0.826682
-18.2492 -8.09755 75.0811 -0.578485 0.0426917 0.814485
-17.425 -7.18702 75.65 -0.589364 0.0147912 0.807732
-16.5097 -6.50671 76.2621 -0.561449 0.0317065 0.826902
-15.7863 -5.06284 76.6755 -0.503311 0.0384322 0.863245
-15.2807 -4.17959 76.9296 -0.502412 0.0220819 0.864117
-15.1374 -3.05628 77.0047 -0.49188 0.00852806 0.870621
-15.2108 -2.00302 76.9543 -0.492407 -2.89336e-05 0.870364
-15.2228 -0.627259 76.9495 -0.49385 -0.00263928 0.869542
-15.3676 0.607739 76.8642 -0.500973 0.00323556 0.865457
-15.7881 1.56644 76.617 -0.500778 0.00643188 0.865546
-16.5778 2.47146 76.1519 -0.535351 -0.0171833 0.844453
-17.1216 3.35897 75.8232 -0.547834 -0.0088849 0.836399
-18.0899 3.76438 75.1771 -0.554783 -0.0166601 0.831822
-19.1296 4.5045 74.4694 -0.583455 -0.016088 0.811979
-20.1059 4.79774 73.7538 -0.608422 -0.00686232 0.793583
-21.1743 4.96261 72.9328 -0.612839 -0.011059 0.79013
-21.5115 4.99326 72.6711 -0.617107 -0.00543052 0.786829
-21.2696 4.18505 72.8479 -0.613841 -0.0114192 0.789347
-22.0751 3.71086 72.2141 -0.616716 -0.0167141 0.786987
-22.7057 2.63125 71.6944 -0.629844 -0.0124777 0.776519
-23.3747 1.72924 71.1279 -0.640166 -0.00755876 0.768189
-23.8951 0.842607 70.6795 -0.636344 -0.00397423 0.771312
-24.3768 -1.1332 70.2833 -0.665717 0.00272255 0.746195
-24.3248 -2.40359 70.3097 -0.656953 -0.0128137 0.753822
-24.1152 -3.39687 70.477 -0.649683 -0.0106424 0.760058
-23.6955 -4.42331 70.8388 -0.63971 0.0137994 0.768493
-23.0415 -5.56088 71.3975 -0.635345 0.00606048 0.772204
-22.2256 -6.50578 72.0666 -0.630562 0.0141231 0.775951
-21.5008 -6.99688 72.6744 -0.632332 0.0210339 0.774411
-20.6738 -7.2951 73.3277 -0.608602 0.0230592 0.793135
-19.3759 -7.31355 74.2695 -0.560724 0.0359791 0.827218
-18.5458 -7.1734 74.8381 -0.574637 0.00693608 0.818364
-17.4301 -6.28312 75.6301 -0.574885 0.0234091 0.817659
-16.502 -5.07491 76.2419 -0.561419 0.00541096 0.827514
-15.9494 -3.72751 76.5398 -0.506039 0.00224331 0.862504
-15.8552 -2.47584 76.5932 -0.498288 0.00359046 0.866965
-15.8021 -1.25401 76.6134 -0.538136 0.0198116 0.842625
-15.9686 0.0127419 76.4903 -0.534813 -0.0136246 0.844861
-16.3565 1.06456 76.2628 -0.534433 -0.0160552 0.845058
-16.8979 1.86224 75.9366 -0.535351 -0.0171833 0.844453
-17.8291 2.78578 75.343 -0.561868 -0.00216378 0.827223
-19.0751 3.56801 74.4864 -0.581936 -0.0185563 0.813022
-19.8375 4.01109 73.9509 -0.595437 -0.0241597 0.802925
-21.1907 4.17593 72.909 -0.611652 -0.011995 0.791035
-21.2205 4.18059 72.886 -0.612839 -0.011059 0.79013
-21.2454 3.34373 72.8541 -0.612444 -0.0119826 0.79042
-21.9531 2.70025 72.291 -0.618377 -0.0141586 0.785744
-22.5271 1.89697 71.8286 -0.631143 -0.00586803 0.775573
-23.3852 0.483164 71.0983 -0.633553 -0.0148886 0.773556
-23.7085 -0.43281 70.8318 -0.627885 -0.0043247 0.778294
-23.8247 -1.57927 70.7444 -0.637846 -0.000575504 0.770078
-23.674 -2.82205 70.8533 -0.641919 -0.0101021 0.766706
-23.2666 -3.96772 71.1934 -0.646666 -0.000978062 0.762773
-22.7572 -4.87901 71.626 -0.630735 0.00632528 0.77595
-22.0734 -5.71285 72.1823 -0.625855 0.00669175 0.779911
-21.3962 -6.24654 72.7396 -0.622402 0.021851 0.782258
-20.2377 -6.5779 73.6392 -0.61038 0.0137879 0.791915
-19.238 -6.56025 74.3504 -0.570313 0.00874507 0.821381
-18.2667 -6.10032 75.029 -0.578446 0.00550643 0.815702
-17.2783 -5.04513 75.7126 -0.572543 0.0118888 0.819789
-16.7805 -4.12272 76.0461 -0.571932 0.0150856 0.820158
-16.4837 -2.90471 76.2047 -0.557978 0.0250916 0.829474
-16.4239 -1.44191 76.2208 -0.54876 0.0124116 0.835753
-16.5163 -0.301374 76.1358 -0.53856 0.00134427 0.842401
-16.8946 0.703561 75.9144 -0.536757 -0.0178853 0.843547
-17.683 1.76165 75.4331 -0.538509 -0.0170868 0.842446
-18.5174 2.43677 74.8589 -0.587426 -0.019242 0.809049
-19.6539 3.11377 74.0563 -0.58464 -0.02424 0.81093
-20.5392 3.37731 73.3966 -0.605797 -0.0239966 0.795257
-20.841 3.35355 73.1663 -0.608096 -0.0180423 0.793628
-20.7291 2.58882 73.2283 -0.598153 -0.0113231 0.801151
-19.7877 2.40039 73.9391 -0.594946 -0.0245703 0.803282
-18.7929 1.79797 74.6438 -0.587301 -0.0197945 0.809126
-18.0933 1.24005 75.1527 -0.568516 -0.0105778 0.822152
-17.5182 0.499354 75.5099 -0.547427 -0.0230964 0.836534
-17.1038 -0.619668 75.7575 -0.552419 0.000868689 0.833516
-17.0258 -1.84569 75.8168 -0.559645 0.00413843 0.828722
-17.122 -2.93356 75.7777 -0.558071 0.0267967 0.829358
-17.4828 -4.09981 75.556 -0.571932 0.0150856 0.820158
-18.0183 -4.90251 75.1937 -0.575233 0.0100627 0.817919
-19.0945 -5.71406 74.4422 -0.574126 0.00833538 0.818721
-20.0672 -5.84937 73.7682 -0.592077 0.00642373 0.805373
-21.2124 -5.52372 72.8673 -0.61567 0.00434796 0.787977
-22.1064 -4.69597 72.1515 -0.629257 -0.000225493 0.777197
-22.7828 -3.61173 71.604 -0.638035 -0.000653771 0.769925
-23.1304 -2.65877 71.311 -0.644477 -0.00603918 0.76458
-23.2507 -1.58768 71.2143 -0.63307 0.00919611 0.77404
-23.0527 -0.349042 71.361 -0.630281 0.00251942 0.776322
-22.5281 0.804331 71.807 -0.635339 -0.0152707 0.772082
-21.9815 1.6187 72.2684 -0.625119 0.00277348 0.780522
-21.2774 2.42918 72.8269 -0.607168 0.00230306 0.794309
-21.0165 1.65704 73.0191 -0.590863 0.000782529 0.806772
-19.9195 1.62854 73.8225 -0.590516 -0.000164113 0.807025
-18.9947 1.12877 74.4966 -0.588302 0.00150717 0.80864
-17.8589 -0.215361 75.2673 -0.546348 -0.0121111 0.837423
-17.6273 -1.22103 75.4144 -0.546194 -0.00314942 0.837653
-17.633 -2.27095 75.4106 -0.565913 0.0228686 0.824097
-17.8979 -3.44139 75.2516 -0.572501 0.0181363 0.819703
-18.5155 -4.40103 74.8366 -0.575123 0.0065551 0.818032
-19.4248 -5.05715 74.2058 -0.572498 0.00604365 0.819883
-20.6582 -4.97483 73.2968 -0.614172 0.00476392 0.789141
-21.3916 -4.52429 72.7275 -0.613287 0.000593912 0.78986
-22.1264 -3.54256 72.1362 -0.629067 -0.001181 0.777349
-22.5293 -2.5968 71.811 -0.628655 0.00112953 0.777679
-22.6697 -1.33917 71.6858 -0.630065 0.00928046 0.776487
-22.1334 0.290812 72.1217 -0.637035 -0.0112395 0.770739
-21.6246 1.07612 72.556 -0.629815 -0.00565723 0.776631
-21.3283 1.43248 72.7909 -0.607559 0.00232847 0.793993
-21.1767 0.608347 72.9021 -0.594674 -0.00649102 0.803902
-20.387 0.967334 73.4797 -0.589989 -0.00102416 0.80741
-19.488 0.615735 74.1369 -0.590729 -0.000810603 0.806869
-18.7267 -0.0554331 74.6938 -0.589658 0.000309979 0.807651
-18.2355 -1.21695 75.0165 -0.55412 -0.00859232 0.832392
-18.2294 -2.22519 75.0102 -0.554555 0.000131669 0.832102
-18.5062 -3.20522 74.8349 -0.556202 0.00831318 0.831005
-19.1492 -4.03093 74.3937 -0.571588 -0.00323757 0.820534
-20.0459 -4.32867 73.7681 -0.588744 0.00700277 0.807936
