-0.438819 -42.7997 88.4561 -0.0704905 0.0847489 0.993695
0.642823 -42.1839 88.4373 -0.0237763 0.0905075 0.995495
1.69763 -42.1875 88.444 0.0141219 0.0989741 0.994774
3.11181 -42.1501 88.2324 0.244451 0.105959 0.963855
4.32509 -42.2009 87.9309 0.244037 0.10675 0.96385
5.7282 -42.8516 87.6374 0.322261 0.108862 0.937269
4.89976 -42.8428 87.8508 0.248786 0.102779 0.96309
3.89466 -42.8965 88.1161 0.246419 0.10375 0.963591
2.74721 -43.0086 88.3776 0.135424 0.0321471 0.990249
1.68405 -42.9038 88.5121 0.0606926 0.0652459 0.993346
0.606544 -42.7176 88.4839 -0.0274437 0.0879617 0.995738
-0.378457 -42.8948 88.4687 -0.0685648 0.0905162 0.993091
-0.410604 -42.8848 88.4645 -0.090593 0.0853648 0.992089
-0.604719 -43.5104 88.5092 -0.0685648 0.0905162 0.993091
0.913096 -43.5742 88.5658 -0.0243605 0.0941793 0.995229
2.4063 -43.6607 88.4479 0.131045 0.0962931 0.986688
3.55739 -43.6311 88.2811 0.192232 0.0670077 0.976885
4.7601 -43.6456 87.9697 0.252649 0.0926584 0.963111
6.07434 -43.6703 87.5558 0.418869 0.0824508 0.904294
7.08205 -43.5723 87.0737 0.428645 0.0799658 0.899927
8.37717 -43.0269 86.3287 0.489329 0.0945844 0.866933
7.52116 -42.6156 86.774 0.493388 0.0898188 0.86516
6.59931 -42.2662 87.1883 0.413376 0.0993875 0.904763
5.63885 -41.8348 87.5494 0.323115 0.112115 0.936639
3.92706 -41.3513 87.9314 0.239471 0.113601 0.964234
2.72516 -41.2754 88.2289 0.215385 0.14581 0.964608
1.44868 -41.361 88.3611 0.0269167 0.150201 0.988118
0.116945 -41.54 88.3607 -0.0476832 0.0946284 0.994298
-0.883421 -41.6297 88.3128 -0.0637734 0.106279 0.992255
-1.86681 -41.8865 88.204 -0.172562 0.0719602 0.982363
-3.13408 -42.1254 87.9599 -0.261644 0.0976241 0.959484
-3.93079 -42.9252 87.758 -0.30832 0.0456775 0.950185
-4.92129 -42.6546 87.4177 -0.359895 0.0462625 0.930717
-5.85913 -42.5551 86.989 -0.435237 0.0636438 0.89804
-7.20372 -42.6967 86.2784 -0.503624 0.0730874 0.860821
-8.11559 -43.3523 85.8086 -0.498914 0.079526 0.862991
-6.95562 -43.3333 86.4759 -0.499397 0.0745411 0.863156
-6.1654 -43.2369 86.8902 -0.421227 0.0496091 0.90512
-5.16036 -43.3849 87.338 -0.402736 0.0275793 0.9149
-3.99947 -43.4254 87.7594 -0.312239 0.0479855 0.948774
-2.95354 -43.2498 88.0947 -0.249806 0.0595803 0.964269
-1.93398 -43.4439 88.297 -0.179031 0.0588015 0.982084
-1.03822 -43.3755 88.4533 -0.133693 0.0766716 0.98705
-0.867548 -44.1846 88.5305 -0.145193 0.0543263 0.987449
0.760196 -44.2816 88.6342 -0.0288656 0.0988778 0.994669
1.88114 -44.3555 88.5853 0.102047 0.0791729 0.991062
3.10833 -44.3621 88.4172 0.157898 0.0948442 0.982797
4.70266 -44.3535 88.0529 0.254788 0.0973428 0.96207
5.69553 -44.3556 87.7922 0.33598 0.0860748 0.933768
6.60383 -44.3237 87.3686 0.424177 0.080663 0.901966
7.59122 -44.1687 86.8884 0.444974 0.0865796 0.890976
8.74057 -44.1084 86.2481 0.485269 0.093884 0.86931
9.60937 -44.0738 85.7459 0.496413 0.0948961 0.862857
10.4848 -43.5722 85.0803 0.605054 0.0672699 0.793337
9.7875 -42.7903 85.4553 0.558978 0.127895 0.81926
8.94488 -42.4158 85.9381 0.491366 0.0972314 0.865464
8.04556 -42.0752 86.4188 0.493388 0.0898188 0.86516
7.18088 -41.7232 86.8629 0.413376 0.0993875 0.904763
6.09832 -41.2508 87.2729 0.394466 0.12456 0.910424
4.6775 -40.7055 87.6676 0.24669 0.128961 0.960475
3.5563 -40.5097 87.9248 0.216336 0.150107 0.963657
2.09265 -40.5103 88.2102 0.187765 0.185321 0.964573
0.788084 -40.6566 88.252 0.0126028 0.155281 0.987761
-0.397069 -40.7995 88.2478 -0.0516722 0.12645 0.990625
-1.51263 -41.0326 88.2014 -0.121383 0.0922516 0.986846
-3.26151 -41.4648 87.857 -0.223997 0.11388 0.967914
-4.82844 -41.7968 87.3875 -0.339753 0.120101 0.931719
-6.04241 -41.8926 86.8533 -0.435237 0.0636438 0.89804
-7.02027 -41.9262 86.3201 -0.490507 0.0712983 0.868451
-8.27254 -41.939 85.5327 -0.561325 0.0994548 0.821361
-9.15497 -42.201 84.9831 -0.549939 0.113052 0.827518
-9.06349 -43.642 85.2233 -0.547527 0.09671 0.83118
-7.62838 -44.0717 86.154 -0.495841 0.0692473 0.865604
-6.4248 -44.0743 86.8345 -0.438492 0.0810777 0.893254
-4.79458 -44.1134 87.5287 -0.375219 0.0890962 0.922487
-3.81703 -44.1442 87.8599 -0.313662 0.0525178 0.948079
-2.04862 -44.1345 88.3171 -0.18083 0.0594011 0.981717
-1.74232 -44.1411 88.3738 -0.175661 0.0629961 0.982425
-2.04961 -44.8946 88.3641 -0.180127 0.0605601 0.981776
-1.028 -44.938 88.544 -0.117982 0.0426115 0.992101
0.136264 -44.9721 88.6812 -0.0720546 0.0695158 0.993786
1.35172 -45.043 88.6683 0.07428 0.0640072 0.995181
2.37684 -45.0999 88.593 0.105245 0.0802464 0.990657
3.70662 -45.0496 88.3744 0.165687 0.0852537 0.982484
4.76491 -45.0531 88.1108 0.257366 0.102457 0.960867
5.91871 -45.0413 87.7546 0.391712 0.0623458 0.917082
7.31297 -44.9789 87.1038 0.4225 0.0940857 0.901466
8.32253 -44.9424 86.5696 0.468699 0.0780006 0.879906
9.32552 -44.8895 86.0058 0.49105 0.0977835 0.86559
10.1791 -44.8309 85.4229 0.584789 0.0569425 0.808659
11.2348 -44.3307 84.5726 0.605188 0.0689943 0.793086
11.0551 -42.8408 84.5813 0.619593 0.0771024 0.780866
10.295 -42.2641 85.0479 0.551119 0.0629392 0.832043
9.46577 -41.8958 85.5655 0.536075 0.0837505 0.839683
8.5634 -41.5473 86.0629 0.496727 0.0985125 0.862296
7.69553 -41.1912 86.5201 0.479596 0.119134 0.868986
6.23732 -40.5296 87.1114 0.396884 0.127854 0.908918
5.35564 -40.1365 87.417 0.312786 0.137387 0.937232
4.38357 -39.8623 87.6287 0.224444 0.156579 0.961231
3.08358 -39.7171 87.866 0.186145 0.182126 0.965495
1.94632 -39.74 88.0907 0.0999138 0.173032 0.975748
0.93401 -39.8484 88.1255 0.0207022 0.152147 0.988139
-0.498059 -40.0538 88.1481 -0.050418 0.125325 0.990834
-1.75342 -40.3271 88.0506 -0.182021 0.159638 0.969683
-2.85507 -40.6043 87.8499 -0.218993 0.130404 0.966815
-3.98825 -40.8816 87.5736 -0.334474 0.121247 0.933281
-5.22601 -41.1156 87.1152 -0.390323 0.144891 0.908909
-6.68837 -41.2011 86.4457 -0.454438 0.104723 0.883416
-7.64363 -41.2177 85.8998 -0.536487 0.0775071 0.839084
-8.88289 -41.2164 85.0288 -0.560374 0.0994037 0.82204
-9.77997 -41.4173 84.4682 -0.544312 0.109408 0.831715
-9.97056 -42.578 84.4949 -0.573959 0.078485 0.813844
-9.84113 -43.5861 84.6678 -0.592648 0.0646171 0.802673
-9.33058 -44.5394 85.1019 -0.578049 0.0594302 0.813833
-8.14633 -44.7693 85.9083 -0.501337 0.0515302 0.863622
-6.92127 -44.8517 86.6108 -0.489198 0.0618293 0.869966
-5.49722 -44.8472 87.3123 -0.376381 0.0837167 0.922568
-4.49361 -44.8527 87.6933 -0.307355 0.0763757 0.948524
-3.23013 -44.8901 88.1058 -0.315149 0.0855046 0.9451
-2.48923 -44.895 88.2828 -0.172337 0.0772736 0.981821
-2.1886 -45.6448 88.4016 -0.157364 0.0880245 0.983606
-3.77951 -45.6344 87.9948 -0.324465 0.0994231 0.940649
-4.73286 -45.5986 87.6734 -0.335341 0.0732462 0.938792
-5.75442 -45.5831 87.2665 -0.401294 0.0148615 0.915824
-6.6542 -45.5996 86.8151 -0.47362 0.0745023 0.877226
-7.55805 -45.5528 86.2986 -0.498629 0.0583527 0.864811
-8.72493 -45.4652 85.5998 -0.510276 0.0496925 0.858538
-9.57046 -45.3459 85.0055 -0.57725 0.0786504 0.812729
-10.4071 -44.1687 84.2867 -0.605729 0.0700508 0.792582
-10.5308 -43.1823 84.1074 -0.601754 0.0464716 0.797328
-10.6752 -41.6109 83.9047 -0.57423 0.0783411 0.813747
-9.68221 -40.493 84.4473 -0.540246 0.0693132 0.838624
-8.4905 -40.4853 85.2279 -0.572146 0.0817158 0.816069
-7.51426 -40.5016 85.9164 -0.536487 0.0775071 0.839084
-6.25788 -40.4855 86.5365 -0.429581 0.14705 0.890975
-4.66276 -40.2773 87.2018 -0.369744 0.154537 0.91619
-3.66774 -40.046 87.5721 -0.3077 0.148883 0.936868
-2.46053 -39.7398 87.8049 -0.212366 0.148143 0.965896
-1.17488 -39.4168 87.9792 -0.144597 0.175774 0.973731
0.538567 -39.1244 88.0221 0.0226969 0.210371 0.975489
1.73183 -38.9887 87.947 0.0597861 0.277317 0.958372
2.7513 -38.944 87.7838 0.170926 0.223546 0.958569
4.05599 -39.0466 87.5412 0.19269 0.201128 0.960225
5.05572 -39.2525 87.369 0.225634 0.160949 0.960254
6.06581 -39.6685 87.0499 0.378833 0.144568 0.914103
6.98193 -40.1005 86.7251 0.430958 0.132781 0.891766
7.93133 -40.5412 86.2921 0.463018 0.139124 0.875362
8.90767 -40.9583 85.7963 0.508794 0.104435 0.854396
9.82036 -41.3037 85.2744 0.524615 0.103792 0.844988
10.7328 -41.6791 84.7129 0.584567 0.075975 0.806568
11.483 -42.1991 84.1731 0.626099 0.0750271 0.776032
12.1179 -43.578 83.7885 0.632474 0.0864667 0.76974
11.8328 -44.907 84.1627 0.623464 0.0729088 0.778216
11.0195 -45.4486 84.8364 0.607689 0.0681269 0.791238
9.96848 -45.6269 85.6075 0.563778 0.0418541 0.824865
9.00394 -45.6737 86.266 0.523291 0.0643108 0.848234
8.0621 -45.7127 86.7766 0.468699 0.0780006 0.879906
6.80219 -45.7383 87.4206 0.397833 0.0582606 0.914571
5.85439 -45.7461 87.8022 0.372968 0.0269127 0.927452
4.77073 -45.7618 88.1614 0.290923 0.040858 0.95586
3.68265 -45.7782 88.443 0.145539 0.0501525 0.987203
2.63523 -45.8031 88.5759 0.124247 0.0134459 0.99216
1.542 -45.781 88.6838 0.0882693 0.018256 0.995926
-0.460791 -45.6951 88.6438 -0.0997723 0.0334939 0.994361
-1.58299 -45.6579 88.498 -0.167082 0.075424 0.982899
-1.74991 -46.3873 88.5153 -0.143158 0.0469909 0.988573
0.112736 -46.4495 88.7267 -0.0997723 0.0334939 0.994361
1.40243 -46.5027 88.7059 0.0601286 0.00433861 0.997939
3.00231 -46.5135 88.539 0.117591 0.0196962 0.99281
4.62624 -46.4844 88.2327 0.27769 0.0193909 0.960467
6.23354 -46.461 87.6689 0.360776 0.0533544 0.930643
7.42782 -46.4673 87.162 0.468485 0.045642 0.882283
8.38292 -46.4466 86.6495 0.471916 0.0480776 0.880331
9.26692 -46.4172 86.1416 0.535693 0.0467342 0.842304
10.5542 -46.3493 85.2552 0.576361 0.0566494 0.815062
11.5436 -46.1385 84.4889 0.610068 0.063988 0.789759
12.3892 -45.4047 83.7515 0.638056 0.0800568 0.765816
12.7706 -44.1761 83.3015 0.643199 0.0816552 0.761332
12.7037 -43.0142 83.2425 0.650119 0.0778301 0.755767
12.305 -42.0797 83.4903 0.642948 0.0661412 0.76291
11.3928 -41.1999 84.1374 0.620396 0.083933 0.779784
10.6103 -40.8372 84.7206 0.602699 0.0811759 0.793486
9.67968 -40.5191 85.2653 0.524615 0.103792 0.844988
8.7687 -40.18 85.784 0.508794 0.104435 0.854396
7.82315 -39.7297 86.2254 0.460781 0.105856 0.881178
6.77396 -39.2408 86.6693 0.380973 0.18878 0.905082
5.8557 -38.7997 86.9682 0.379437 0.191747 0.905113
4.74495 -38.4191 87.2383 0.219433 0.23994 0.945663
3.43623 -38.255 87.478 0.184282 0.256754 0.94847
2.36783 -38.2284 87.6477 0.156152 0.264704 0.951603
1.34047 -38.2764 87.7654 0.0597861 0.277317 0.958372
0.34146 -38.4006 87.825 0.0247599 0.268558 0.962944
-1.12514 -38.6531 87.8128 -0.130937 0.266596 0.95487
-2.18432 -38.8973 87.7307 -0.143432 0.219458 0.963831
-3.76121 -39.3217 87.4196 -0.241012 0.166579 0.95612
-5.48055 -39.7091 86.7783 -0.382415 0.130321 0.914745
-6.5521 -39.787 86.2732 -0.432761 0.165638 0.886161
-8.11193 -39.7704 85.4237 -0.540593 0.124476 0.830074
-9.26478 -39.7204 84.6399 -0.529051 0.0776797 0.845027
-10.29 -39.784 83.9676 -0.596365 0.106834 0.793206
-11.1746 -40.5994 83.341 -0.643757 0.11743 0.756166
-11.2755 -41.621 83.3871 -0.663754 0.0878989 0.742734
-11.212 -42.7472 83.5678 -0.631627 0.0656473 0.771231
-11.0496 -44.134 83.7925 -0.612057 0.0607486 0.788385
-10.8026 -45.2946 84.0635 -0.621497 0.0616634 0.780912
-10.2333 -45.9693 84.57 -0.598942 0.0634694 0.798273
-8.99883 -46.2036 85.4788 -0.543681 0.0600495 0.836507
-8.12876 -46.2534 86.0083 -0.508109 0.0556991 0.859478
-7.1302 -46.3299 86.5965 -0.493574 0.0563003 0.867879
-6.12073 -46.3425 87.1172 -0.402432 0.0176628 0.915274
-4.83637 -46.3503 87.6825 -0.397974 0.0379933 0.916543
-3.75129 -46.3812 88.0806 -0.326566 0.058408 0.943319
-2.6308 -46.3777 88.3861 -0.155082 0.062156 0.985805
-2.02441 -46.3831 88.4742 -0.145128 0.0499866 0.988147
-2.20384 -47.1132 88.4815 -0.14509 0.0427755 0.988493
-0.706382 -47.1609 88.6906 -0.107661 0.0475676 0.992832
0.305289 -47.1825 88.7419 0.00552636 -0.016928 0.999714
1.4689 -47.2356 88.7004 0.0812488 0.000883675 0.996693
2.77488 -47.2537 88.5864 0.103845 0.0147585 0.994342
3.90783 -47.2311 88.4551 0.197808 0.0243155 0.976249
5.05507 -47.1982 88.1174 0.285456 0.0155784 0.958265
6.25348 -47.1913 87.7235 0.346538 0.0793375 0.934675
7.47053 -47.1988 87.1799 0.467943 0.0523911 0.882193
8.37388 -47.1822 86.6954 0.490537 0.0389995 0.870206
9.26736 -47.1581 86.1652 0.509351 0.0278657 0.860108
10.1814 -47.1324 85.5726 0.575265 0.055612 0.815912
11.1049 -47.07 84.8969 0.588167 0.0479073 0.807319
11.8755 -46.8749 84.2905 0.610375 0.0623984 0.789651
12.6044 -46.2822 83.6342 0.690527 0.0314813 0.722603
13.1154 -45.4826 83.1041 0.691579 0.0371272 0.721346
13.4305 -44.308 82.7336 0.670545 0.0774361 0.737811
13.3553 -43.1292 82.6842 0.663216 0.0773375 0.744359
13.0433 -42.0552 82.8434 0.669362 0.0944692 0.736899
12.3939 -41.0597 83.3268 0.656877 0.0580251 0.750959
11.2761 -40.3562 84.1608 0.616358 0.0632197 0.784923
10.4108 -40.0155 84.7658 0.555539 0.0925705 0.825218
9.32316 -39.6369 85.388 0.506807 0.107139 0.855148
8.24679 -39.1553 85.9326 0.486523 0.127081 0.864376
6.76983 -38.4846 86.5153 0.372476 0.187708 0.908856
5.58481 -37.9387 86.8464 0.308369 0.258687 0.915406
4.4282 -37.6158 87.1075 0.195799 0.258245 0.94557
2.93359 -37.4912 87.3435 0.164252 0.275785 0.947045
1.60782 -37.5353 87.5059 0.0869603 0.303133 0.948972
0.520319 -37.6369 87.6056 -0.00816202 0.289807 0.956372
-0.596849 -37.8101 87.6169 -0.0423625 0.311185 0.949383
-1.72571 -38.0504 87.5601 -0.126602 0.265276 0.955798
-2.73939 -38.3047 87.4702 -0.223726 0.219685 0.949571
-3.98195 -38.6354 87.2445 -0.308133 0.149071 0.936825
-5.09659 -38.889 86.8201 -0.382977 0.13698 0.913537
-6.40304 -39.042 86.2089 -0.462463 0.125834 0.877664
-7.71283 -39.0534 85.5197 -0.508081 0.170225 0.84432
-8.82137 -39.0065 84.8425 -0.531676 0.130305 0.836164
-9.77529 -38.9637 84.1889 -0.554507 0.14409 0.819606
-10.9428 -39.0441 83.298 -0.641882 0.120352 0.757288
-11.7075 -39.8631 82.7733 -0.643579 0.116863 0.756405
-11.8497 -40.936 82.7851 -0.664272 0.0951575 0.741409
-11.8039 -42.353 82.9982 -0.662469 0.0832544 0.744447
-11.7035 -43.5712 83.2086 -0.711034 0.0690978 0.699422
-11.5789 -44.7666 83.4166 -0.618275 0.0513519 0.784282
-11.1978 -46.1356 83.8234 -0.624308 0.0709999 0.777945
-10.1109 -46.8472 84.7312 -0.600209 0.0597444 0.797606
-9.20031 -46.941 85.3943 -0.564904 0.0453783 0.823607
-8.32338 -46.9812 85.9475 -0.512058 0.0664938 0.856288
-7.20962 -47.0649 86.5984 -0.494061 0.0544859 0.867718
-5.97694 -47.0776 87.2069 -0.407316 0.0422106 0.912312
-4.30535 -47.1425 87.9357 -0.361256 0.0488431 0.93061
-3.29716 -47.1375 88.2702 -0.243416 0.043125 0.968022
-2.57162 -47.1101 88.4277 -0.17847 0.028536 0.982825
-2.35158 -47.8499 88.4729 -0.17815 -0.0110701 0.983541
-3.75606 -47.9026 88.1704 -0.265665 0.0297938 0.961502
-4.91342 -47.8445 87.7028 -0.388344 0.0305222 0.921009
-5.98296 -47.8309 87.2376 -0.413022 0.0314004 0.910129
-7.00756 -47.8194 86.7598 -0.458394 0.0398707 0.886843
-8.2623 -47.7347 86.0346 -0.508833 0.0429923 0.85967
-9.15483 -47.6773 85.4585 -0.547557 0.0396016 0.835831
-10.2239 -47.6233 84.7025 -0.591284 0.0546092 0.804535
-11.2181 -47.3346 83.8622 -0.663397 0.0291094 0.747662
-11.749 -46.5107 83.3638 -0.666642 0.0234409 0.74501
-12.0321 -45.5591 83.0576 -0.68559 0.0472286 0.726427
-12.1886 -44.4602 82.8232 -0.687434 0.0564431 0.724046
-12.243 -43.4337 82.6465 -0.711034 0.0690978 0.699422
-12.3589 -42.1015 82.4349 -0.700371 0.0268084 0.712613
-12.4424 -40.5964 82.2277 -0.651401 0.0912955 0.753221
-12.304 -39.5374 82.2379 -0.640934 0.0804685 0.763314
-11.8607 -38.6774 82.5077 -0.637774 0.0886079 0.76511
-11.0613 -38.2486 83.1039 -0.623502 0.0911714 0.776484
-10.1805 -38.2032 83.7816 -0.56215 0.132462 0.816357
-8.87799 -38.2645 84.6873 -0.561253 0.129899 0.817385
-8.01777 -38.3182 85.2063 -0.499166 0.13717 0.85558
-7.07919 -38.3252 85.7477 -0.46932 0.138525 0.871975
-6.05145 -38.2829 86.2855 -0.456498 0.134894 0.879369
-5.04767 -38.1506 86.727 -0.384669 0.145775 0.911446
-4.06101 -37.9252 87.0419 -0.289811 0.267166 0.918514
-2.93089 -37.6303 87.2498 -0.203031 0.271305 0.940826
-1.57665 -37.2803 87.3681 -0.120353 0.256613 0.958975
-0.381849 -37.0334 87.3841 -0.043191 0.261148 0.964318
0.984465 -36.8593 87.3468 0.0729742 0.310125 0.947765
2.04036 -36.7891 87.2269 0.0910304 0.302719 0.948719
3.07046 -36.7554 87.1184 0.129352 0.27328 0.951944
4.37556 -36.8663 86.9146 0.202813 0.259222 0.943561
5.74937 -37.2357 86.6107 0.301799 0.222181 0.927082
7.02614 -37.8359 86.2756 0.370984 0.210814 0.904131
8.10594 -38.3362 85.8901 0.443638 0.159801 0.880888
9.02094 -38.7791 85.4386 0.498641 0.125618 0.857658
10.0528 -39.1459 84.8922 0.508727 0.107982 0.853883
10.8632 -39.4034 84.359 0.590124 0.095919 0.801594
11.9741 -39.8321 83.5584 0.618188 0.0819971 0.781677
12.7475 -40.3999 82.9579 0.680732 0.0457952 0.731096
13.4534 -41.5478 82.4041 0.66963 0.0988465 0.736086
13.9176 -42.7997 82.1306 0.679732 0.0834917 0.72869
14.0399 -43.8802 82.1367 0.678345 0.0773245 0.730617
13.9391 -45.1114 82.3183 0.678572 0.0273335 0.734025
13.3961 -46.3041 82.8774 0.691932 0.0309615 0.721271
12.7822 -47.1474 83.4957 0.692337 0.0247012 0.721152
11.645 -47.7664 84.5385 0.640445 0.0367513 0.765712
10.7686 -47.8624 85.1907 0.590006 0.0806113 0.803364
9.83639 -47.8803 85.8559 0.516144 0.0442673 0.855316
8.93601 -47.9001 86.3916 0.509588 0.0489408 0.859025
8.06736 -47.9232 86.908 0.489434 0.0614807 0.86948
7.1495 -47.9245 87.3941 0.398545 0.0694976 0.912371
5.55071 -47.9157 87.9788 0.308201 0.016224 0.951181
3.924 -47.9528 88.4637 0.275948 0.0054787 0.961086
2.44674 -47.9805 88.6181 0.0948707 0.000739757 0.995489
1.00588 -47.9323 88.7312 0.0418363 0.00326995 0.998642
-0.338576 -47.9007 88.7325 -0.0334285 -0.00271919 0.999045
-1.34269 -47.8673 88.6318 -0.144259 0.0131524 0.989238
-1.73432 -47.8614 88.5673 -0.156856 -0.000484117 0.987595
-2.12865 -48.5951 88.506 -0.186016 -0.00708223 0.982073
-3.22779 -48.6484 88.268 -0.210441 -0.0261972 0.977256
-4.42763 -48.647 87.9184 -0.379219 0.00465592 0.925286
-5.49291 -48.5828 87.4762 -0.377456 0.00606614 0.925977
-6.42841 -48.582 87.0524 -0.421428 0.0258646 0.906491
-7.62955 -48.5385 86.4451 -0.502318 0.0384921 0.863737
-8.64103 -48.4928 85.8344 -0.532926 0.0366998 0.845177
-9.83785 -48.4822 85.0483 -0.557105 0.0323387 0.82973
-10.7946 -48.361 84.2756 -0.629792 0.0273997 0.77628
-11.5597 -48.1394 83.5957 -0.667194 0.0357199 0.744025
-12.1464 -47.262 83.0333 -0.675775 0.0260803 0.736515
-12.4447 -46.3583 82.709 -0.691035 0.0402535 0.721699
-12.6654 -45.2292 82.4268 -0.694662 0.0535508 0.717326
-12.7443 -44.2349 82.2434 -0.708241 0.0883117 0.700423
-12.8209 -42.6896 82.0023 -0.700547 0.0251264 0.712468
-13.0071 -41.2888 81.8221 -0.667766 0.0460127 0.741345
-13.0319 -40.2178 81.6876 -0.643503 0.0716521 0.762082
-12.8919 -39.2187 81.7112 -0.640294 0.0803047 0.763869
-11.8565 -37.7197 82.4001 -0.631513 0.0898893 0.770097
-11.0423 -37.4502 83.0013 -0.60656 0.134224 0.783625
-10.0089 -37.4546 83.7775 -0.562694 0.133351 0.815839
-8.78554 -37.5418 84.6344 -0.530502 0.133613 0.836275
-7.61022 -37.5939 85.32 -0.490154 0.15082 0.858489
-6.4264 -37.569 85.9713 -0.464172 0.154154 0.872177
-4.83309 -37.3992 86.6202 -0.319661 0.261332 0.910781
-3.39082 -37.0324 86.9716 -0.263372 0.269687 0.926228
-1.9066 -36.6082 87.151 -0.125221 0.254306 0.958964
-0.804863 -36.3602 87.1803 -0.0791495 0.281916 0.956166
0.355977 -36.1948 87.1627 0.0591942 0.320508 0.945394
1.44178 -36.1063 87.0641 0.0747129 0.312605 0.946796
2.52014 -36.047 86.9451 0.08702 0.302546 0.949154
3.56992 -36.0412 86.8441 0.130557 0.275454 0.951188
4.95105 -36.2447 86.5873 0.241087 0.274811 0.930766
6.45726 -36.7996 86.2336 0.362466 0.243048 0.899747
7.85892 -37.4853 85.7972 0.429983 0.222873 0.874896
8.7801 -37.9077 85.4493 0.459725 0.174812 0.868943
9.76175 -38.3161 84.938 0.502193 0.131847 0.854645
10.7949 -38.6547 84.3116 0.590336 0.114276 0.798962
11.8461 -39.0078 83.5561 0.621188 0.0992032 0.777357
12.6293 -39.3497 82.973 0.631954 0.114439 0.766232
13.3614 -40.054 82.3643 0.681902 0.0478173 0.729876
13.835 -40.9757 81.9782 0.675958 0.071805 0.732865
14.2942 -41.9349 81.6681 0.686306 0.0905983 0.721647
14.6149 -43.682 81.573 0.735674 0.0477689 0.671502
14.5963 -44.9364 81.6594 0.7518 0.0288847 0.656757
14.1484 -46.2329 82.1217 0.724317 0.00794443 0.68925
13.6286 -47.1176 82.6737 0.710327 0.0100672 0.7038
13.0509 -47.9021 83.2635 0.683049 0.0170818 0.730021
12.1051 -48.4528 84.1252 0.671661 -0.000956379 0.740856
11.2623 -48.5831 84.9005 0.634844 0.0436731 0.768399
10.3874 -48.6048 85.5456 0.589404 0.0815099 0.803715
9.51006 -48.6142 86.0906 0.522452 0.0400686 0.851727
8.61039 -48.634 86.6267 0.510592 0.0490358 0.858424
7.35565 -48.6526 87.3372 0.453921 0.0690217 0.888313
6.3473 -48.6582 87.7309 0.31682 0.00165164 0.948484
4.85504 -48.6561 88.1993 0.279988 0.00542651 0.959936
3.77263 -48.6668 88.503 0.179104 0.00705146 0.979452
2.37555 -48.678 88.6305 0.0810163 0.00443361 0.996555
1.20304 -48.657 88.7114 0.06728 -0.0113749 0.997659
0.09763 -48.6331 88.7424 -0.0196212 -0.00378511 0.999481
-0.94132 -48.6114 88.6869 -0.0707161 -0.0199734 0.997184
-1.1245 -48.6105 88.6717 -0.122798 -0.00894566 0.991387
-0.790097 -49.354 88.6782 -0.0861981 0.00375093 0.995743
0.453244 -49.3738 88.7523 0.00209234 0.020752 0.998462
1.82115 -49.4046 88.6742 0.0636282 0.0184841 0.997776
3.05991 -49.3894 88.5788 0.0851963 0.0136286 0.996259
4.37102 -49.3756 88.3343 0.267309 -0.00366776 0.963602
5.46488 -49.3689 88.0278 0.27918 0.016577 0.960007
6.51069 -49.3655 87.6782 0.321152 0.0341848 0.94641
7.458 -49.3723 87.3487 0.479179 0.0624588 0.874832
9.01964 -49.3456 86.4235 0.510528 0.0485768 0.858488
10.0307 -49.3314 85.805 0.52451 0.0385553 0.850526
10.924 -49.3317 85.2232 0.636254 0.0434226 0.767194
11.708 -49.3069 84.4931 0.680642 0.00513001 0.732597
12.5475 -49.1411 83.7208 0.674385 -0.00368247 0.738366
13.3691 -48.5929 82.9695 0.692759 0.0107077 0.720591
14.2772 -47.2499 82.0209 0.716946 0.0168653 0.696826
14.8907 -46.075 81.3369 0.72665 0.00806565 0.686773
15.1128 -45.0415 81.0244 0.779759 0.0622498 0.622971
15.1123 -43.9205 80.9566 0.775957 0.0204498 0.630382
15.0751 -42.9073 80.9873 0.777332 0.0112182 0.628981
14.7439 -41.3869 81.1587 0.697524 0.0956421 0.710147
14.084 -40.0748 81.6877 0.686005 0.0467924 0.726082
13.5495 -39.1664 82.1302 0.683423 0.0474026 0.728482
12.8449 -38.6184 82.6647 0.646918 0.127951 0.751716
11.666 -38.1903 83.5915 0.640925 0.130849 0.756367
10.5316 -37.843 84.3792 0.586416 0.122677 0.800666
9.59107 -37.5115 84.9142 0.502197 0.131846 0.854643
8.52844 -37.0519 85.3647 0.426584 0.210994 0.879493
7.65125 -36.6374 85.6895 0.422326 0.215277 0.880497
6.47693 -36.0585 86.0402 0.352298 0.223339 0.908842
5.10965 -35.553 86.365 0.231563 0.221827 0.947185
4.14066 -35.3575 86.5538 0.166187 0.280775 0.941406
3.06467 -35.3165 86.6507 0.0909521 0.335804 0.937524
1.93148 -35.3603 86.7725 0.0934304 0.333645 0.93803
0.799713 -35.439 86.8791 0.0626124 0.312555 0.947831
-0.274639 -35.5282 86.976 -0.00476577 0.337895 0.938453
-1.26731 -35.702 86.948 -0.0791495 0.281916 0.956166
-2.55256 -36.047 86.9165 -0.195865 0.262614 0.942255
-3.62711 -36.3845 86.7123 -0.26111 0.272145 0.926147
-4.69806 -36.6523 86.453 -0.311966 0.257703 0.914457
-5.67961 -36.7933 86.1434 -0.35699 0.262237 0.895866
-7.18062 -36.8748 85.4347 -0.480197 0.158375 0.862719
-8.74527 -36.8206 84.5231 -0.519462 0.174323 0.836176
-10.2389 -36.6874 83.4919 -0.584896 0.135923 0.799202
-11.0739 -36.6727 82.8392 -0.613076 0.154826 0.774704
-12.0855 -36.9767 82.1147 -0.604783 0.134461 0.784627
-13.1432 -38.04 81.3882 -0.625776 0.0691815 0.776928
-13.4995 -39.2013 81.1514 -0.725897 0.0691487 0.684316
-13.597 -40.2889 81.1587 -0.727834 0.0685355 0.68232
-13.5669 -41.284 81.2894 -0.714244 0.0316622 0.69803
-13.3149 -43.0757 81.5343 -0.690843 0.0137413 0.722685
-13.2795 -44.0792 81.679 -0.713553 0.0833194 0.695622
-13.2199 -45.3569 81.8816 -0.718352 0.053763 0.693532
-12.8512 -47.0586 82.359 -0.699762 0.0393177 0.713187
-12.531 -47.993 82.6981 -0.686319 0.0300395 0.726675
-12.0849 -48.7671 83.146 -0.673335 0.0288718 0.738773
-11.1885 -49.1174 83.9746 -0.668984 0.0322575 0.742557
-10.2196 -49.2069 84.7785 -0.630131 0.0400909 0.775453
-9.40781 -49.2156 85.3637 -0.561099 0.0240671 0.827389
-8.12626 -49.2709 86.1754 -0.518176 0.0314673 0.854695
-6.92417 -49.3267 86.8397 -0.433091 0.00881465 0.901131
-5.87266 -49.3452 87.3301 -0.420091 0.0151809 0.907326
-4.75616 -49.3645 87.7842 -0.35413 -0.0535922 0.931526
-3.48653 -49.3726 88.1794 -0.234618 -0.0408673 0.971218
-1.57672 -49.3495 88.6051 -0.186016 -0.00708223 0.982073
-1.4818 -49.3509 88.6207 -0.122798 -0.00894566 0.991387
-1.73592 -50.0774 88.5757 -0.1787 -0.000476972 0.983147
-2.76936 -50.0648 88.3476 -0.228129 0.0149939 0.973424
-4.08769 -50.0806 87.9979 -0.287323 0.0200296 0.957032
-5.58475 -50.0978 87.4581 -0.368733 0.0123062 0.929451
-6.67545 -50.0924 86.9589 -0.43568 -0.00621361 0.900035
-7.6164 -50.0552 86.4798 -0.506428 0.00357148 0.862275
-8.57335 -50.0076 85.9163 -0.503325 0.0105749 0.863987
-9.53399 -49.9832 85.3005 -0.561099 0.0240671 0.827389
-10.5928 -49.9597 84.5144 -0.635823 0.0275851 0.771224
-11.5513 -49.8874 83.6717 -0.670548 0.0231634 0.741504
-12.4862 -49.5669 82.8099 -0.682095 0.0299212 0.730566
-13.0192 -48.4503 82.2551 -0.690988 0.0295744 0.722256
-13.3382 -47.4902 81.9018 -0.702072 0.0389193 0.710969
-13.723 -45.8774 81.3967 -0.727899 0.0521163 0.683687
-13.7859 -44.6713 81.2376 -0.705071 0.0554056 0.706341
-13.8249 -43.6566 81.0932 -0.690659 0.06874 0.719907
-13.9513 -42.6695 80.9213 -0.683533 0.0194345 0.729613
-14.0703 -41.6476 80.784 -0.729625 0.064253 0.680822
-14.1329 -40.5928 80.6173 -0.729194 0.0663021 0.681085
-14.1157 -39.4892 80.5259 -0.728706 0.067883 0.681454
-13.8268 -38.1933 80.704 -0.726153 0.0704754 0.683911
-13.168 -36.9531 81.2388 -0.678011 0.0938687 0.727155
-12.4476 -36.332 81.7251 -0.605243 0.133866 0.784327
-11.5014 -35.9539 82.3572 -0.601965 0.15185 0.783814
-10.5224 -35.9033 83.1218 -0.607581 0.163281 0.777224
-9.42398 -36.028 83.9144 -0.540928 0.16986 0.823733
-8.37371 -36.1079 84.5948 -0.503404 0.19009 0.842705
-7.43859 -36.1385 85.1469 -0.477469 0.213713 0.851221
-6.44273 -36.1439 85.618 -0.391671 0.255126 0.884025
-5.31958 -36.0382 86.0564 -0.334709 0.26242 0.905004
-4.2138 -35.7982 86.3778 -0.288688 0.261731 0.920406
-3.00945 -35.4423 86.6105 -0.248724 0.293157 0.922792
-2.01787 -35.1472 86.6735 -0.083645 0.357991 0.929971
-0.853075 -34.8968 86.6816 -0.0828659 0.358625 0.929796
0.358155 -34.7468 86.682 0.0621793 0.310048 0.948681
1.41156 -34.6764 86.5874 0.0799259 0.321742 0.943206
2.49879 -34.6197 86.4526 0.0948189 0.332375 0.938328
3.68165 -34.6102 86.3326 0.10313 0.34371 0.933395
4.76257 -34.7244 86.2535 0.168512 0.283964 0.939923
5.71705 -35.0028 86.0497 0.332781 0.244565 0.910737
7.19296 -35.6483 85.6608 0.386033 0.219587 0.895235
8.29624 -36.1963 85.2719 0.423201 0.215662 0.879977
9.20835 -36.6154 84.9135 0.457909 0.207605 0.864417
10.228 -37.0124 84.4593 0.485492 0.170155 0.856595
11.4022 -37.3809 83.6522 0.60055 0.142191 0.786843
12.2705 -37.6403 82.9839 0.640225 0.131657 0.756821
13.4274 -38.1236 82.0757 0.650448 0.125484 0.749112
14.1602 -38.8666 81.5377 0.685972 0.0469234 0.726104
14.7799 -40.1492 81.0304 0.689045 0.0463766 0.723233
15.3897 -41.3873 80.5459 0.735032 0.0494845 0.671117
15.5777 -42.8604 80.3637 0.77884 0.0168029 0.626994
15.6101 -43.8861 80.3402 0.777229 0.0189611 0.628845
15.6375 -45.2599 80.405 0.766943 0.0691739 0.637974
15.4312 -46.3412 80.7623 0.75541 0.0337237 0.653586
15.0297 -47.1582 81.2194 0.73891 0.0118349 0.673699
14.3798 -48.2398 81.94 0.714163 0.0204863 0.699629
13.6979 -49.2826 82.6628 0.693099 0.00980437 0.720279
12.9965 -49.8268 83.3121 0.674422 0.0255172 0.737904
12.1639 -50.0266 84.086 0.681078 0.0305836 0.731571
11.381 -50.0655 84.8183 0.68273 0.0313464 0.729998
10.5798 -50.0558 85.5022 0.57268 0.0140409 0.817081
9.68142 -50.0521 86.0576 0.523411 0.0464707 0.850812
8.80247 -50.0694 86.5947 0.514875 0.0471735 0.85595
7.94157 -50.0903 87.1075 0.507912 0.0506 0.859917
7.00354 -50.1043 87.5382 0.35319 0.0102171 0.93453
5.91128 -50.1022 87.9023 0.290831 0.0157724 0.956642
4.49267 -50.1013 88.312 0.262835 0.0198219 0.964628
2.91094 -50.0931 88.598 0.0869536 -0.000919947 0.996146
1.45446 -50.1218 88.7051 0.0560512 0.00944174 0.998376
0.339177 -50.1025 88.7632 0.0515117 0.00691314 0.998648
-0.695177 -50.0844 88.7132 -0.0735732 0.0309151 0.99667
-0.926107 -50.0838 88.6924 -0.116102 0.0115619 0.992507
-0.916711 -50.8048 88.6919 -0.125116 -0.00436687 0.991927
-1.96825 -50.7986 88.5331 -0.185146 0.00148972 0.98216
-2.96582 -50.7897 88.312 -0.237591 0.0132026 0.97104
-4.26212 -50.8167 87.9595 -0.299905 0.00413694 0.952747
-5.42433 -50.8421 87.5288 -0.363479 -0.0012747 0.931539
-6.41083 -50.8556 87.0946 -0.445408 0.0249487 0.894894
-7.56201 -50.8237 86.5149 -0.47539 -0.00117998 0.879055
-9.014 -50.7565 85.678 -0.498294 0.0174161 0.866833
-10.042 -50.7437 84.9747 -0.591233 0.00308314 0.805565
-10.876 -50.713 84.2884 -0.653321 0.0171547 0.756886
-11.8402 -50.6968 83.4341 -0.673829 0.00943012 0.738764
-12.6332 -50.5119 82.6887 -0.694119 0.00631887 0.719732
-13.2521 -49.6001 82.069 -0.707783 0.00670382 0.706351
-13.5639 -48.6051 81.7378 -0.694112 0.0342051 0.719041
-13.9597 -47.4639 81.2479 -0.735049 0.045282 0.676497
-14.2295 -46.3375 80.8863 -0.741482 0.044626 0.669476
-14.2789 -45.1648 80.7516 -0.7223 0.0306277 0.690849
-14.3426 -44.1176 80.6407 -0.708067 0.0443033 0.703928
-14.4795 -42.9392 80.4355 -0.707193 0.037416 0.705208
-14.6011 -41.9639 80.2419 -0.730243 0.0526716 0.681098
-14.6609 -40.679 80.0596 -0.731793 0.0637948 0.678528
-14.6476 -39.6494 79.973 -0.728034 0.0676995 0.682189
-14.4289 -38.0833 80.0526 -0.726541 0.0594056 0.684508
-13.8652 -36.8087 80.5424 -0.721899 0.0564982 0.689681
-12.8514 -35.7152 81.3077 -0.646277 0.126333 0.751741
-12.0362 -35.2896 81.8374 -0.584893 0.12527 0.801378
-11.1675 -35.1586 82.4623 -0.612237 0.155975 0.775136
-10.1495 -35.1947 83.2537 -0.59844 0.163245 0.784295
-8.82441 -35.3486 84.1312 -0.512837 0.203497 0.83401
-7.62464 -35.4484 84.8414 -0.458093 0.250206 0.852954
-6.69518 -35.4602 85.3108 -0.406516 0.261391 0.875234
-5.76776 -35.3933 85.6947 -0.338066 0.274401 0.900231
-4.5183 -35.1708 86.097 -0.328943 0.263985 0.906565
-3.50651 -34.8579 86.28 -0.23951 0.315964 0.918042
-1.89348 -34.359 86.3846 -0.0804388 0.353348 0.932017
-0.478754 -34.1314 86.4086 -0.0702916 0.367101 0.92752
0.521706 -34.0124 86.4339 -0.00115683 0.336791 0.938672
1.9008 -33.9233 86.2745 0.101326 0.324268 0.940518
3.05822 -33.8787 86.1407 0.101877 0.264991 0.958796
4.07812 -33.9085 86.0451 0.0962928 0.283444 0.954142
5.12346 -34.0685 85.9858 0.194728 0.306927 0.925771
6.10437 -34.409 85.7409 0.339718 0.274911 0.899452
7.04725 -34.8195 85.5075 0.340586 0.273359 0.899596
7.92528 -35.2608 85.2223 0.405774 0.178714 0.896328
8.95782 -35.7598 84.8409 0.459503 0.192655 0.866959
9.92999 -36.1791 84.4262 0.462426 0.199955 0.863816
11.0377 -36.5652 83.7811 0.588524 0.172725 0.789813
12.2434 -36.9101 82.8798 0.63986 0.132513 0.75698
13.2744 -37.2387 82.0722 0.642416 0.107968 0.758708
14.01 -37.6894 81.5141 0.643445 0.109649 0.757598
14.8094 -38.7923 80.8911 0.707597 0.0896172 0.70091
15.3074 -39.8557 80.5083 0.689373 0.046794 0.722893
15.994 -41.3696 79.7644 0.795094 0.034494 0.60549
16.0654 -42.9242 79.7617 0.78719 0.0263524 0.615896
16.1259 -44.0294 79.7348 0.757892 0.0320164 0.651593
16.1583 -45.549 79.81 0.769597 0.0611115 0.635563
15.914 -46.6549 80.2024 0.771252 0.0542551 0.634214
15.4017 -47.7066 80.8212 0.737645 0.022415 0.674765
14.8898 -48.5708 81.4196 0.727819 0.0237123 0.685196
14.315 -49.4973 82.0365 0.719043 0.0125645 0.694842
13.6082 -50.4175 82.7648 0.710989 0.00149627 0.703202
12.8807 -50.7153 83.4491 0.677371 0.0298198 0.735012
12.1461 -50.7874 84.1357 0.680768 0.0337586 0.731721
11.383 -50.7986 84.8485 0.651337 0.00373437 0.757102
10.5553 -50.7784 85.5016 0.6182 -0.0236929 0.785664
9.70995 -50.7687 86.0786 0.522363 0.0445252 0.851556
8.43692 -50.7957 86.8523 0.512699 0.0444067 0.857411
7.4908 -50.8208 87.3268 0.389636 -0.0105262 0.920899
6.36937 -50.8328 87.7698 0.338351 0.000456968 0.940544
5.21282 -50.8125 88.1233 0.277209 0.0119404 0.960701
3.72926 -50.8227 88.4897 0.193399 -0.0389342 0.979833
2.40787 -50.8289 88.6457 0.0847072 0.0098745 0.996354
1.03059 -50.8452 88.7327 0.0520545 0.011767 0.99856
-0.249764 -50.8192 88.7628 -0.0823804 0.0116618 0.996011
-0.127879 -51.5344 88.7659 -0.05683 -0.0307072 0.996624
-1.16674 -51.5161 88.6571 -0.129356 -0.00283841 0.991176
-2.22099 -51.5153 88.4841 -0.197781 -0.00348985 0.980016
-3.47644 -51.5268 88.1853 -0.263055 0.0135471 0.964661
-4.83864 -51.5391 87.7508 -0.358789 0.0236187 0.932975
-6.01436 -51.6389 87.3049 -0.40105 0.0108385 0.914471
-6.93309 -51.5969 86.8411 -0.456962 0.00572777 0.889468
-8.15927 -51.5606 86.1825 -0.493912 0.0104495 0.869449
-9.09794 -51.5291 85.6451 -0.531811 0.0216979 0.845649
-10.0579 -51.4796 84.9589 -0.608323 0.00745701 0.793611
-11.1153 -51.5014 84.0978 -0.652625 0.0104868 0.757607
-11.9664 -51.4862 83.3196 -0.679214 0.00920255 0.733846
-12.7368 -51.4096 82.596 -0.693925 0.00534532 0.719926
-13.3473 -50.8751 81.9875 -0.707072 0.00846042 0.707065
-13.7807 -49.8346 81.5334 -0.712846 0.0096913 0.701251
-14.2402 -48.366 80.9939 -0.750196 0.0173133 0.660988
-14.5912 -47.2876 80.5394 -0.746177 0.0355152 0.664799
-14.7556 -46.2322 80.2957 -0.7478 0.0396221 0.662618
-14.8217 -44.662 80.1512 -0.732326 0.0253604 0.680426
-14.9778 -43.0965 79.913 -0.744694 0.0284298 0.66619
-15.1538 -42.0965 79.6567 -0.733266 0.0541857 0.67772
-15.1815 -40.2733 79.4495 -0.739072 0.0596514 0.670935
-15.2048 -39.0516 79.3205 -0.727347 0.0675038 0.682942
-14.9935 -37.9773 79.4483 -0.725413 0.0523186 0.686322
-14.5253 -36.774 79.8495 -0.721475 0.0554371 0.690205
-13.7414 -35.6283 80.4791 -0.670283 0.11894 0.732512
-12.6083 -34.7145 81.3298 -0.65064 0.141207 0.746142
-11.8062 -34.4122 81.868 -0.578759 0.129699 0.805119
-10.6569 -34.3619 82.7088 -0.57565 0.166333 0.799531
-9.38204 -34.477 83.5767 -0.514479 0.223273 0.82775
-8.4748 -34.6453 84.1473 -0.46901 0.258817 0.844346
-7.55075 -34.7469 84.6729 -0.436401 0.262475 0.860389
-6.19179 -34.7235 85.3208 -0.402873 0.264104 0.876152
-5.07861 -34.5974 85.7177 -0.346918 0.249222 0.904177
-3.87383 -34.2643 85.9901 -0.221852 0.285114 0.932443
-2.82761 -33.8325 86.1035 -0.160459 0.333013 0.925677
-1.29396 -33.5071 86.1192 -0.0785944 0.340301 0.937018
0.313495 -33.3125 86.1535 -0.0657847 0.31805 0.94543
1.88518 -33.1825 86.0635 0.0913036 0.261067 0.960992
3.32698 -33.1551 85.9067 0.111878 0.267821 0.956951
4.85914 -33.2871 85.7813 0.193095 0.312408 0.924118
5.88469 -33.6013 85.5647 0.293378 0.338038 0.894237
6.86227 -33.9956 85.3267 0.338541 0.276557 0.899387
7.80874 -34.4378 85.1049 0.343721 0.272475 0.898656
8.69967 -34.8818 84.7939 0.436736 0.180859 0.880604
9.5701 -35.2946 84.4137 0.468998 0.184571 0.863689
10.8472 -35.7761 83.7499 0.588785 0.174039 0.78933
11.915 -36.1244 83.0276 0.611099 0.144444 0.777437
12.8053 -36.3197 82.3334 0.62302 0.11782 0.773282
13.6011 -36.6204 81.7099 0.645282 0.103158 0.756938
14.496 -37.2317 81.0007 0.698977 0.0966994 0.708552
15.3383 -38.5353 80.3238 0.708224 0.0903518 0.700181
15.7637 -39.465 79.9931 0.752043 0.0379895 0.655381
16.1576 -40.3052 79.4961 0.775623 -0.0163459 0.630962
16.5349 -41.2962 79.0439 0.797408 0.035391 0.602399
16.5823 -42.5889 79.0917 0.769384 0.0569685 0.636241
16.6077 -43.7335 79.1473 0.769326 0.0388534 0.637673
16.6952 -45.0812 79.1221 0.782266 0.0209607 0.622019
16.5496 -46.3563 79.3787 0.810473 0.0292537 0.585039
16.1522 -47.5954 79.9891 0.813391 0.0208313 0.581297
15.591 -48.5398 80.6525 0.737077 0.0307612 0.675108
15.1613 -49.3081 81.1552 0.728444 0.0227335 0.684574
14.5636 -50.303 81.7893 0.719308 0.0087657 0.694636
13.926 -51.221 82.446 0.711353 0.00185709 0.702832
13.166 -51.4525 83.2159 0.688705 0.0227532 0.724597
12.3932 -51.5078 83.9367 0.680443 0.0251788 0.732368
11.5737 -51.5218 84.6861 0.63741 0.0077087 0.770074
10.7136 -51.503 85.3668 0.61998 0.0216899 0.784317
9.87153 -51.4852 86.0143 0.54958 0.0130589 0.834346
8.96018 -51.4908 86.5679 0.5143 0.0287566 0.857127
7.99137 -51.5192 87.1093 0.410239 -0.0077119 0.911661
6.93543 -51.5856 87.5639 0.379823 0.021829 0.924527
5.32364 -51.5311 88.0955 0.286458 -0.00408105 0.958079
4.24968 -51.516 88.3651 0.221085 0.0121754 0.975085
3.19994 -51.5151 88.5642 0.158018 0.00561841 0.987101
1.94212 -51.5532 88.6949 0.0808417 0.00872277 0.996665
0.851039 -51.5895 88.7526 0.0491022 0.0148607 0.998683
0.511045 -51.5792 88.7693 0.0204437 -0.0152802 0.998805
0.666614 -52.4997 88.7309 0.00122117 -0.0439805 0.998976
-0.409969 -52.3705 88.7242 -0.0590521 -0.0294532 0.996683
-1.51802 -52.3096 88.6106 -0.140341 0.0117965 0.988993
-2.58397 -52.302 88.4054 -0.227584 -0.00391568 0.973751
-3.62605 -52.3645 88.1618 -0.246383 0.00778787 0.968876
-4.91072 -52.264 87.729 -0.360608 0.00318222 0.93269
-5.96922 -52.5163 87.3358 -0.400124 0.0122007 0.914635
-6.86739 -52.2897 86.8794 -0.453952 0.00566119 0.891001
-7.7536 -52.4991 86.4253 -0.475723 0.00901382 0.879286
-9.15599 -52.4744 85.6255 -0.541966 0.0125669 0.838508
-10.0768 -52.2342 84.9455 -0.601748 0.0105461 0.798553
-11.3143 -52.3653 83.9368 -0.654261 0.00933106 0.75621
-12.1586 -52.24 83.1534 -0.684955 0.0127181 0.728465
-13.2123 -52.1096 82.121 -0.710719 0.000495296 0.703451
-13.9763 -51.0337 81.3506 -0.73005 0.000548763 0.68294
-14.4286 -49.964 80.8215 -0.750484 0.0167599 0.660677
-14.8096 -48.3853 80.349 -0.762691 0.0260522 0.645877
-15.1665 -47.5035 79.8858 -0.776805 0.0122497 0.629621
-15.2855 -46.4621 79.6932 -0.767793 0.0374082 0.639605
-15.2805 -45.2099 79.6352 -0.764653 0.0293404 0.643769
-15.3153 -44.1877 79.5458 -0.763537 0.0303179 0.645051
-15.4861 -42.9422 79.3177 -0.759132 0.0114282 0.650834
-15.6984 -41.653 79.0167 -0.755402 0.0509701 0.652683
-15.7771 -40.3957 78.804 -0.740236 0.0629021 0.669386
-15.7571 -38.8154 78.7043 -0.745662 0.0534675 0.664088
-15.547 -37.7927 78.8487 -0.725531 0.0526328 0.686174
-15.1497 -36.7481 79.1915 -0.721158 0.044924 0.691268
-14.6889 -35.9 79.6207 -0.716079 0.0397785 0.696881
-14.1432 -34.9862 80.0058 -0.674062 0.119631 0.728923
-13.1349 -34.2783 80.7887 -0.652332 0.141028 0.744693
-12.3437 -33.8256 81.3867 -0.615694 0.134269 0.77526
-11.4478 -33.6239 81.9986 -0.577636 0.131672 0.805602
-10.6025 -33.4109 82.52 -0.523367 0.169265 0.834197
-9.59988 -33.6703 83.2146 -0.496922 0.224847 0.838013
-8.70146 -33.8679 83.7841 -0.474722 0.241746 0.84627
-7.7212 -33.8747 84.3273 -0.42665 0.24894 0.868257
-6.60361 -33.9568 84.8759 -0.412778 0.286435 0.864617
-5.59616 -33.9375 85.3276 -0.387837 0.290172 0.874852
-4.56305 -33.7126 85.6644 -0.282438 0.26721 0.918693
-3.01137 -33.0857 85.8212 -0.142978 0.314986 0.936196
-1.91233 -32.8899 85.8455 -0.0671148 0.329588 0.941607
-0.407101 -32.5223 85.8541 -0.0859994 0.288314 0.953585
0.591152 -32.6024 85.9556 -0.0749878 0.292686 0.953259
1.68453 -32.3339 85.8254 0.056378 0.299513 0.952422
3.50721 -32.4134 85.6781 0.11202 0.267679 0.956974
4.53171 -32.4553 85.5737 0.173762 0.265193 0.945594
5.60147 -32.7831 85.355 0.271723 0.251861 0.928834
6.61623 -33.1101 85.1478 0.289171 0.256944 0.921928
7.60511 -33.6102 84.9318 0.337199 0.273915 0.9007
8.53569 -34.0433 84.7019 0.378136 0.225539 0.89611
9.42689 -34.4798 84.317 0.465743 0.184146 0.865548
10.3972 -34.9081 83.8774 0.467585 0.194071 0.862316
11.3705 -35.1176 83.2289 0.583923 0.156691 0.796511
12.2569 -35.4242 82.6301 0.60279 0.146091 0.784192
13.1658 -35.6829 81.9402 0.63253 0.108304 0.766867
14.2444 -36.1003 81.0821 0.65194 0.112995 0.749804
14.9922 -36.6716 80.4405 0.702011 0.0729898 0.708415
15.4833 -37.5163 80.0443 0.708607 0.091033 0.699706
15.9219 -38.3614 79.684 0.728168 0.0845436 0.680162
16.3718 -39.4653 79.252 0.773028 -0.0128724 0.634242
16.7976 -40.3406 78.7014 0.78422 -0.0143417 0.620219
17.0679 -41.274 78.3925 0.768828 0.0357196 0.638203
17.1118 -42.326 78.4286 0.767956 0.055369 0.6381
17.1838 -44.0607 78.4731 0.783232 0.0200249 0.620697
17.1964 -45.2045 78.4648 0.795437 0.00871139 0.605958
17.0855 -46.2415 78.6284 0.807984 0.014607 0.58885
16.8892 -47.2092 78.9424 0.814885 0.0160935 0.579396
16.204 -48.6334 79.9184 0.810909 0.000229371 0.585172
15.7494 -49.3941 80.4593 0.765891 -0.00436246 0.642953
15.0339 -50.6712 81.2884 0.739241 -0.00419247 0.673428
14.4258 -51.7971 81.9636 0.723229 0.0209255 0.689986
13.6901 -52.2452 82.7279 0.704117 0.0265804 0.709482
12.9341 -52.3128 83.4637 0.688217 0.0244219 0.724993
12.1168 -52.3039 84.2107 0.654156 -0.00684914 0.756329
11.2115 -52.2917 84.9938 0.637554 0.00865779 0.769902
10.3317 -52.2825 85.6795 0.578321 -0.00881936 0.815761
9.4642 -52.2729 86.2948 0.545587 0.0149801 0.836679
8.47674 -52.2744 86.8616 0.426021 -0.0252612 0.904361
7.30974 -52.3541 87.4091 0.411094 -0.00840058 0.91125
6.07147 -52.3411 87.8685 0.291243 0.00086075 0.956591
4.90706 -52.2912 88.2141 0.284219 -0.00663836 0.958736
3.80802 -52.2937 88.4672 0.175771 -0.00357749 0.983266
2.61273 -52.2924 88.6352 0.13945 -0.0333598 0.989667
1.51475 -52.3061 88.7308 0.0290511 0.0068556 0.998425
1.48642 -52.3061 88.7304 -0.00172674 -0.0284966 0.999351
