-1.99406 -42.1938 89.5592 -0.185897 0.0554286 0.981
-0.46267 -42.702 89.7522 -0.0301464 0.0813689 0.996226
0.623956 -42.7566 89.7868 -0.0258016 0.0785934 0.996569
2.13259 -42.7641 89.7475 0.0250709 0.0447731 0.998679
3.26594 -42.5453 89.5596 0.200577 0.0810761 0.976287
4.33329 -42.8339 89.3462 0.262137 0.082794 0.961186
5.55992 -42.65 89.0121 0.28051 0.0840572 0.955704
5.26551 -41.9798 89.0383 0.289514 0.083345 0.953424
4.13828 -42.3765 89.362 0.22282 0.0747092 0.971766
3.19592 -41.6858 89.5035 0.199312 0.078596 0.976779
2.34809 -42.0773 89.7052 0.115665 0.0666007 0.987667
1.39701 -41.7071 89.7192 0.0286487 0.0509457 0.998229
0.632236 -42.6683 89.7825 -0.0101817 0.0465287 0.99844
-0.405614 -42.1461 89.7202 -0.0395438 0.0422591 0.998324
-1.39489 -42.1206 89.669 -0.140801 0.0707475 0.986278
-1.654 -41.447 89.5837 -0.140801 0.0707475 0.986278
-0.650341 -41.3109 89.6676 -0.0949042 0.0929721 0.991135
0.362544 -41.1796 89.709 -0.0124939 0.0490588 0.998346
1.49094 -41.007 89.6789 0.058412 0.0882592 0.993537
3.05906 -40.9884 89.4753 0.186925 0.100485 0.976903
4.09696 -41.1355 89.2744 0.224584 0.0781303 0.971003
5.63284 -41.386 88.8748 0.289514 0.083345 0.953424
7.09274 -42.0753 88.4448 0.359532 0.107225 0.925708
7.83773 -42.6778 88.1223 0.465959 0.0817058 0.881026
9.21071 -43.1323 87.4092 0.525658 0.0936337 0.844368
10.0621 -43.2382 86.8424 0.561381 0.11208 0.819932
9.31876 -43.3753 87.369 0.526209 0.0951893 0.843802
8.36793 -43.41 87.9097 0.474822 0.0759867 0.876724
7.41846 -43.436 88.3812 0.397879 0.045169 0.91631
6.0604 -43.4967 88.9373 0.289112 0.0825789 0.953039
5.04282 -43.4634 89.2096 0.273952 0.103171 0.956192
3.7122 -43.4723 89.5491 0.19898 0.0938946 0.975493
2.53116 -43.4765 89.7716 0.104655 0.0580169 0.989384
1.21478 -43.4457 89.8212 0.0460196 0.0870832 0.995137
-0.0119972 -43.4462 89.8249 -0.0254001 0.0796028 0.996499
-1.21078 -43.3173 89.7447 -0.155359 0.0334285 0.987292
-2.73001 -43.3765 89.482 -0.220018 0.0381739 0.974271
-4.12358 -43.4031 89.1175 -0.280206 0.0375412 0.958864
-5.46401 -43.3593 88.6532 -0.339256 0.0328144 0.940121
-6.38682 -43.4533 88.265 -0.468784 0.0564217 0.881102
-7.36218 -43.6046 87.7248 -0.49008 0.039922 0.870763
-8.31061 -43.4511 87.1562 -0.521476 0.0490066 0.851812
-9.26864 -43.4264 86.5344 -0.567781 0.0774027 0.819527
-9.08692 -42.5186 86.5692 -0.548567 0.0830451 0.831966
-7.78308 -42.495 87.4222 -0.528207 0.0656666 0.846168
-7.048 -42.5686 87.8538 -0.471446 0.0590582 0.879475
-6.02694 -42.3998 88.3582 -0.445838 0.0808444 0.891432
-5.01344 -42.328 88.7781 -0.320597 0.0439149 0.945965
-3.3522 -42.0327 89.2814 -0.292355 0.0680091 0.9538
-1.83356 -41.4689 89.5508 -0.185814 0.0522126 0.981197
-1.91762 -40.7633 89.4947 -0.139946 0.0752995 0.9861
-0.926012 -40.5949 89.574 -0.0949042 0.0929721 0.991135
0.183858 -40.3872 89.6598 -0.0675693 0.131309 0.988411
1.34124 -40.2466 89.5831 0.0594342 0.142517 0.987985
2.55105 -40.2004 89.4664 0.176282 0.128753 0.975879
3.78215 -40.2871 89.2507 0.207468 0.157114 0.964651
4.84489 -40.4561 89.0005 0.270807 0.144534 0.951036
5.94654 -40.7459 88.7112 0.299179 0.0994673 0.948739
7.31948 -41.3423 88.2403 0.39772 0.131813 0.907988
8.23844 -41.805 87.822 0.472426 0.0912828 0.876628
9.58466 -42.3123 87.044 0.560109 0.0914389 0.823356
10.5946 -42.5877 86.368 0.599742 0.0947104 0.794563
11.5267 -43.5324 85.7702 0.627585 0.0758718 0.774114
10.679 -44.1245 86.4829 0.607209 0.069598 0.791477
9.80656 -44.0868 87.1339 0.578751 0.102808 0.808639
8.87405 -44.1695 87.6904 0.486788 0.0694544 0.870748
7.14542 -44.2164 88.5498 0.398963 0.0730233 0.914052
5.86598 -44.2143 89.0567 0.293922 0.0668575 0.95251
4.75633 -44.2243 89.3745 0.27316 0.104136 0.956315
3.76138 -44.2175 89.6095 0.19574 0.0957497 0.975962
2.59695 -44.205 89.7995 0.108254 0.0428133 0.992678
0.808424 -44.1966 89.9043 0.0101415 0.0828846 0.995931
-0.92634 -44.0963 89.8192 -0.114491 0.0368324 0.991691
-2.341 -44.0854 89.59 -0.153267 0.0439769 0.987176
-3.49226 -44.1093 89.3187 -0.251882 0.0851687 0.964002
-4.48798 -44.1474 89.0393 -0.323897 0.05704 0.94431
-5.86098 -44.1939 88.5492 -0.356694 0.0461407 0.932847
-6.82406 -44.2459 88.0611 -0.492227 0.0617008 0.868277
-7.73112 -44.2837 87.548 -0.501563 0.042435 0.863976
-9.25436 -44.2536 86.6152 -0.528988 0.0519239 0.847038
-10.0601 -43.9538 86.002 -0.600071 0.0492297 0.79843
-10.2986 -42.9176 85.7396 -0.604769 0.0797024 0.792369
-9.81154 -42.0554 86.0008 -0.581585 0.0944748 0.807972
-8.99024 -41.8024 86.5636 -0.565006 0.0844504 0.820454
-7.45899 -41.8275 87.5686 -0.496807 0.0879164 0.861476
-6.42841 -41.7335 88.0881 -0.45705 0.11267 0.882275
-5.31355 -41.622 88.6354 -0.430256 0.123006 0.894035
-3.83467 -41.3235 89.0743 -0.292856 0.0828324 0.952556
-2.78647 -40.999 89.3322 -0.246533 0.0946207 0.964449
-2.50787 -40.9241 89.393 -0.210908 0.0777746 0.973814
-2.87544 -40.2623 89.2356 -0.235732 0.108307 0.96571
-3.84014 -40.5551 88.9925 -0.287736 0.109197 0.951447
-5.14118 -40.8402 88.5955 -0.369872 0.13111 0.918424
-6.23621 -40.933 88.0849 -0.456384 0.113422 0.882524
-7.51908 -41.0507 87.4449 -0.44887 0.106493 0.887229
-8.43386 -41.0848 86.8713 -0.547806 0.0685861 0.833783
-9.29324 -41.1103 86.2435 -0.584129 0.120457 0.802672
-10.1119 -41.2383 85.668 -0.56875 0.109139 0.814959
-10.7918 -41.7677 85.2229 -0.633809 0.0780594 0.769238
-10.94 -43.4619 85.2989 -0.615544 0.060091 0.78553
-10.4785 -44.7047 85.7229 -0.615736 0.0382387 0.787023
-9.29922 -44.9776 86.6434 -0.564986 0.0621882 0.821108
-8.41657 -44.9896 87.1793 -0.51191 0.04959 0.857606
-7.31167 -44.9886 87.8363 -0.503287 0.0562022 0.862234
-6.35281 -44.9704 88.3796 -0.432937 0.0468532 0.897702
-4.92336 -44.9263 88.9301 -0.342284 0.0397646 0.938755
-3.92113 -44.8603 89.267 -0.31477 0.0525662 0.947711
-2.89433 -44.8185 89.5361 -0.247666 0.0861796 0.964999
-1.8821 -44.8288 89.6949 -0.144398 0.0485504 0.988324
-0.491908 -44.8801 89.868 -0.063327 0.017012 0.997847
0.819579 -44.9357 89.954 -0.00646659 0.0208915 0.997922
2.4585 -44.9504 89.8406 0.0767794 0.0398686 0.99625
3.4964 -44.9587 89.7043 0.145929 0.0417499 0.988406
4.61755 -44.9619 89.4943 0.293583 0.0672154 0.952631
5.81173 -44.954 89.0977 0.315436 0.0299549 0.948474
7.1126 -44.9612 88.611 0.366467 0.0232946 0.930139
8.79042 -44.9244 87.7971 0.48644 0.0628219 0.871422
9.68539 -44.861 87.281 0.541339 0.0499667 0.837586
10.5386 -44.8953 86.6546 0.603902 0.0667772 0.794255
11.3791 -44.8321 86.0062 0.62225 0.0647535 0.780136
12.3367 -44.3964 85.1928 0.640387 0.0857185 0.763011
12.519 -43.4493 84.9053 0.649689 0.08545 0.755001
11.8418 -42.4674 85.4087 0.626138 0.0810132 0.774674
10.5594 -41.8398 86.3227 0.586426 0.0726585 0.806107
9.43622 -41.4414 87.0479 0.560796 0.0918236 0.822846
8.54349 -41.0866 87.5634 0.51813 0.115564 0.847458
7.06885 -40.4347 88.2169 0.397422 0.133113 0.90793
5.73614 -39.9304 88.636 0.298995 0.210551 0.9302
4.35645 -39.6036 88.9746 0.276641 0.194605 0.941059
3.35309 -39.4669 89.1865 0.225273 0.204269 0.952638
2.08108 -39.4425 89.4156 0.0690364 0.142064 0.987442
0.895224 -39.532 89.5103 0.0624921 0.135404 0.988804
-0.295737 -39.6667 89.5282 -0.0420789 0.157161 0.986668
-1.7863 -39.9879 89.4276 -0.122234 0.132765 0.98288
-2.18842 -40.0801 89.3801 -0.192673 0.136878 0.970582
-2.45084 -39.3962 89.2303 -0.143946 0.171321 0.97461
-1.28477 -39.1285 89.3423 -0.105105 0.234441 0.966221
-0.140087 -38.8997 89.41 -0.0467857 0.15611 0.986615
1.40845 -38.7227 89.3617 0.0922165 0.191307 0.975448
2.468 -38.6766 89.2221 0.17012 0.215266 0.960168
3.46104 -38.7233 88.999 0.229024 0.21634 0.949074
4.51968 -38.8608 88.7709 0.254563 0.203883 0.945037
5.58443 -39.128 88.4891 0.319672 0.230821 0.918979
6.50811 -39.442 88.2435 0.356493 0.211922 0.909124
7.68338 -39.915 87.836 0.409307 0.202696 0.889372
8.73133 -40.3545 87.3424 0.516415 0.155505 0.8421
9.64995 -40.7169 86.8215 0.56097 0.0918999 0.822719
10.6285 -41.0957 86.1951 0.570483 0.0967134 0.815512
11.4086 -41.3923 85.6338 0.612126 0.0577195 0.788648
12.2461 -41.879 85.0083 0.656151 0.0698477 0.751357
13.1499 -43.104 84.325 0.666517 0.0684001 0.742327
13.1659 -44.299 84.4429 0.684992 0.0845387 0.723628
12.429 -45.3993 85.1987 0.642242 0.0485337 0.764861
11.3155 -45.6167 86.1222 0.613752 0.0655692 0.786697
10.4296 -45.6442 86.7811 0.58772 0.0390066 0.808124
9.41186 -45.6272 87.4872 0.495709 0.0548606 0.866754
8.38462 -45.6488 88.072 0.489274 0.0562859 0.870312
7.36193 -45.6723 88.5304 0.354325 0.0494114 0.933358
6.17375 -45.6897 88.9987 0.342102 0.0248529 0.938986
5.18759 -45.7009 89.3293 0.311044 0.0259162 0.950025
3.67228 -45.7061 89.7052 0.15851 0.0222463 0.987105
2.61987 -45.7033 89.8575 0.107842 0.0380569 0.992963
0.972569 -45.6729 89.9589 0.0543523 0.0171564 0.998374
-0.166373 -45.6414 89.905 -0.0667199 0.0243562 0.997474
-1.44268 -45.5947 89.7949 -0.14024 0.0423682 0.989194
-3.08555 -45.5549 89.5518 -0.198773 0.0674516 0.976118
-4.2824 -45.637 89.1902 -0.313588 0.0520116 0.948132
-5.37225 -45.7051 88.7985 -0.356315 0.023536 0.933925
-6.50763 -45.7186 88.344 -0.432937 0.0468532 0.897702
-7.79442 -45.7167 87.5917 -0.509435 0.049236 0.859099
-8.78826 -45.7022 86.9982 -0.512363 0.0497925 0.857324
-9.715 -45.6767 86.3572 -0.610546 0.0295791 0.791423
-10.5803 -45.5243 85.6789 -0.612039 0.0311551 0.790206
-11.3386 -44.9492 85.0418 -0.635051 0.0281502 0.771956
-11.5324 -43.7507 84.838 -0.658087 0.0450781 0.750788
-11.5184 -42.5408 84.7218 -0.635113 0.0982321 0.766147
-11.3456 -41.038 84.7047 -0.64199 0.0608788 0.764291
-10.4145 -40.4488 85.3716 -0.556051 0.0986635 0.825269
-9.38364 -40.3738 86.0672 -0.589804 0.117293 0.798941
-8.09937 -40.3441 87.0266 -0.570749 0.092473 0.814953
-7.18272 -40.2734 87.5219 -0.450572 0.10756 0.886234
-5.78488 -40.1398 88.1875 -0.420399 0.142568 0.896062
-4.20198 -39.871 88.7939 -0.320872 0.136643 0.937139
-3.22767 -39.5835 89.0608 -0.262589 0.117533 0.957476
-2.4685 -39.4012 89.2287 -0.190302 0.142068 0.969612
-2.76831 -38.7218 89.0703 -0.190302 0.142068 0.969612
-3.71828 -38.9737 88.8154 -0.310877 0.14484 0.939349
-4.71035 -39.191 88.5186 -0.330793 0.186268 0.923969
-5.69911 -39.3774 88.1024 -0.422031 0.151369 0.893854
-7.20689 -39.5454 87.3982 -0.445044 0.143867 0.88387
-8.48107 -39.6397 86.6306 -0.594851 0.128859 0.79344
-9.63533 -39.6352 85.7861 -0.560967 0.113798 0.819915
-10.6819 -39.6762 85.0895 -0.572961 0.136237 0.807582
-11.4863 -39.8734 84.4398 -0.671044 0.11227 0.732681
-12.0068 -41.0852 84.1177 -0.675211 0.0948094 0.731506
-12.0791 -42.4507 84.2027 -0.67968 0.0745864 0.729707
-12.0854 -44.2768 84.3673 -0.681328 0.0618785 0.729358
-11.716 -45.8508 84.7799 -0.635045 0.0474695 0.771015
-10.4705 -46.368 85.7987 -0.60906 0.0331682 0.79243
-9.26683 -46.4223 86.6811 -0.559989 0.00223159 0.828497
-8.37162 -46.4346 87.284 -0.563362 0.0300834 0.825138
-7.18501 -46.4531 87.9788 -0.497011 0.0169367 0.867579
-6.00084 -46.4595 88.5605 -0.383422 -0.000447441 0.923326
-4.97335 -46.4468 88.9688 -0.369523 0.0157277 0.929088
-3.60893 -46.3425 89.4366 -0.316376 0.0145727 0.948501
-2.18096 -46.3231 89.7154 -0.14319 0.0318966 0.989181
-0.797895 -46.3624 89.8824 -0.0645389 0.0280367 0.997521
0.703709 -46.401 89.982 -0.00801179 0.0179494 0.998049
1.7094 -46.4325 89.929 0.0700656 -0.00871942 0.997504
3.12878 -46.463 89.8038 0.128811 0.00355427 0.991353
4.36508 -46.4518 89.6108 0.232219 0.0164425 0.969382
6.02775 -46.4342 89.0664 0.308241 0.020513 0.951066
7.02541 -46.4105 88.7121 0.340421 0.0747157 0.9373
8.71503 -46.3834 87.9332 0.492754 0.0546171 0.868447
10.0104 -46.3742 87.1194 0.582315 0.0473968 0.81149
11.1458 -46.4031 86.305 0.602261 0.0447759 0.796643
12.2008 -46.2828 85.4309 0.639514 0.0398832 0.767735
13.0053 -46.0259 84.7476 0.662121 0.0437861 0.747496
13.5428 -45.3362 84.1915 0.683991 0.0544996 0.727452
13.7963 -44.3446 83.8518 0.676629 0.0757367 0.732304
13.8012 -43.1235 83.7366 0.669926 0.0665279 0.739441
13.5083 -42.0888 83.9096 0.666269 0.0690338 0.742489
12.4187 -41.1158 84.7829 0.648867 0.0828354 0.756121
11.2716 -40.5687 85.6587 0.61841 0.0876191 0.780783
10.4543 -40.244 86.2137 0.568713 0.103918 0.815812
9.28131 -39.7985 86.9007 0.516124 0.150346 0.843188
8.41161 -39.438 87.3694 0.472154 0.184513 0.86008
7.10939 -38.9129 87.87 0.40672 0.203811 0.890234
6.19802 -38.5794 88.1361 0.324327 0.223469 0.919141
4.87382 -38.1727 88.5009 0.26455 0.255782 0.927351
3.61456 -38.0054 88.7981 0.254494 0.264691 0.928353
2.51108 -37.9329 89.0306 0.164907 0.254576 0.951695
1.13772 -37.9994 89.2146 0.0848372 0.306107 0.94513
-0.306207 -38.1872 89.2248 -0.112412 0.256384 0.960016
-1.96778 -38.5011 89.1264 -0.101964 0.257691 0.960823
-2.30726 -38.5896 89.1126 -0.121787 0.21223 0.968383
-2.84862 -38.008 88.8544 -0.19165 0.357636 0.913744
-3.82687 -38.2551 88.6224 -0.341351 0.227698 0.911919
-5.6509 -38.6114 87.9955 -0.393851 0.189782 0.898048
-6.6862 -38.7351 87.52 -0.433838 0.158049 0.886992
-8.07966 -38.896 86.7794 -0.496823 0.187874 0.847269
-9.12173 -38.9146 86.0464 -0.569807 0.112745 0.814007
-10.0041 -38.8858 85.4161 -0.567747 0.134255 0.811894
-10.8427 -38.9032 84.8184 -0.592783 0.153605 0.790577
-11.7217 -39.062 84.0836 -0.666731 0.128623 0.734115
-12.3482 -39.6957 83.6234 -0.664537 0.0806938 0.742612
-12.6141 -41.3469 83.5912 -0.67499 0.0947294 0.73172
-12.6363 -42.3581 83.6741 -0.679994 0.0734784 0.729527
-12.6504 -43.7239 83.7923 -0.686833 0.0586865 0.724402
-12.6131 -45.1732 83.9401 -0.691198 0.0475995 0.721051
-12.0393 -46.6835 84.532 -0.669372 0.0240645 0.742537
-11.2334 -47.0273 85.2393 -0.610265 0.0490815 0.790518
-10.0243 -47.1345 86.1844 -0.594707 0.0568536 0.801623
-8.7593 -47.1551 87.0669 -0.568474 0.0587573 0.8206
-7.84916 -47.1721 87.6133 -0.494442 0.0283956 0.868746
-6.8978 -47.1888 88.1596 -0.447437 0.00322642 0.892291
-5.95586 -47.1972 88.5668 -0.397007 -0.0167294 0.917663
-4.95752 -47.187 88.9884 -0.348984 0.0163406 0.936724
-3.48572 -47.0868 89.4848 -0.314301 0.00600721 0.949295
-2.24579 -47.0755 89.7306 -0.149607 0.0333669 0.988151
-0.446185 -47.1065 89.9265 -0.0664023 0.0262883 0.997443
0.594295 -47.1314 89.9908 -6.53899e-05 0.00675933 0.998111
2.1353 -47.1864 89.8924 0.0698836 -0.00912846 0.997513
3.31935 -47.2129 89.7695 0.113953 -0.0186699 0.993311
4.85876 -47.2031 89.4588 0.30306 0.0176255 0.952763
6.11426 -47.1637 89.0585 0.308376 0.0257146 0.950911
7.32985 -47.1304 88.6589 0.326099 0.0505012 0.943521
8.39231 -47.1215 88.1606 0.49753 0.0305855 0.866569
9.50444 -47.1021 87.495 0.529181 0.00177944 0.848336
10.371 -47.1496 86.9188 0.58259 0.0589313 0.810615
11.6168 -47.1078 85.9616 0.620363 0.0334435 0.783601
12.4685 -47.0322 85.25 0.640923 0.0438635 0.76635
13.4012 -46.7025 84.3891 0.722187 0.00859756 0.69155
13.9669 -46.0136 83.8035 0.721469 -0.00107724 0.692445
14.2785 -45.1192 83.4788 0.724179 0.000333032 0.689602
14.4397 -43.9168 83.2302 0.669796 0.0672414 0.739494
14.2504 -42.1302 83.2409 0.670099 0.0659093 0.73934
13.7992 -41.2953 83.5748 0.666269 0.0690338 0.742489
12.9771 -40.6285 84.2416 0.660486 0.0793599 0.746586
11.9186 -40.0412 85.0632 0.631708 0.0972506 0.769081
10.7671 -39.5969 85.9019 0.60213 0.123662 0.788757
9.85797 -39.2544 86.4562 0.510998 0.15085 0.846242
8.93918 -38.8923 86.9463 0.513836 0.152154 0.844279
7.93286 -38.488 87.3701 0.426194 0.207381 0.880538
6.51286 -37.9156 87.869 0.347713 0.229893 0.908513
5.3396 -37.5229 88.1886 0.265739 0.256469 0.926807
3.98637 -37.3023 88.4307 0.244237 0.311508 0.917654
2.8411 -37.217 88.7286 0.232808 0.373951 0.896585
1.49493 -37.2598 88.8928 0.0550856 0.381146 0.922872
0.469516 -37.3529 88.9819 -0.0424615 0.368973 0.92847
-0.743212 -37.5422 88.9988 -0.082263 0.314235 0.943539
-1.88966 -37.7559 88.934 -0.129521 0.314651 0.937924
-2.01686 -37.7832 88.9224 -0.166275 0.362145 0.917137
-1.91227 -37.0759 88.6565 -0.162303 0.3681 0.91551
-3.66073 -37.4703 88.4507 -0.214582 0.367173 0.905062
-5.05378 -37.7771 88.0241 -0.365121 0.230566 0.901957
-6.29942 -37.9429 87.5607 -0.396948 0.197618 0.895171
-7.55903 -38.1353 86.9158 -0.497185 0.178801 0.848982
-8.56625 -38.1789 86.333 -0.516122 0.174113 0.838337
-9.48517 -38.1636 85.6799 -0.576543 0.142195 0.804557
-10.3484 -38.1307 85.0412 -0.595348 0.146867 0.78993
-11.1626 -38.1327 84.4275 -0.630127 0.14236 0.761821
-12.4394 -38.5616 83.4397 -0.624015 0.0781431 0.777496
-12.9649 -39.4369 83.065 -0.6543 0.0662816 0.753324
-13.1621 -40.7566 83.0084 -0.666207 0.0789524 0.741284
-13.1961 -42.0802 83.1243 -0.708234 0.0525672 0.702637
-13.1726 -43.2647 83.206 -0.735314 0.0598254 0.67451
-13.2024 -44.2625 83.303 -0.713421 0.0713667 0.696232
-13.1264 -45.8302 83.4832 -0.69264 0.0396372 0.720193
-12.8287 -46.8343 83.8241 -0.681149 0.0316558 0.73126
-11.9804 -47.6232 84.6214 -0.669206 0.0318106 0.742395
-11.1079 -47.8197 85.4015 -0.63511 0.0454156 0.770229
-10.2754 -47.861 86.0496 -0.59482 0.0572756 0.80152
-9.23802 -47.8728 86.7872 -0.573251 0.054768 0.817513
-8.18887 -47.8924 87.4435 -0.494409 0.0283478 0.868767
-7.2668 -47.9145 87.9679 -0.492573 0.0227375 0.869958
-6.19436 -47.9322 88.4613 -0.403225 0.0266762 0.914712
-5.17931 -47.9293 88.9089 -0.368378 0.00677657 0.928681
-4.0654 -47.882 89.2921 -0.318539 -0.00330273 0.947904
-2.35263 -47.8223 89.739 -0.171388 0.0130816 0.9848
-0.99136 -47.8364 89.905 -0.0699007 0.0154971 0.997419
0.388271 -47.8591 89.9916 -0.059208 0.0166368 0.998105
2.00452 -47.9321 89.8947 0.0678421 -0.0115362 0.997625
3.11757 -47.9535 89.7844 0.0999166 0.0360153 0.994337
4.38101 -47.9478 89.6248 0.247262 -0.000145724 0.967614
5.44582 -47.9127 89.2927 0.304695 0.0256611 0.952104
6.75042 -47.8759 88.869 0.311608 0.0255558 0.949867
7.74406 -47.8512 88.548 0.404703 0.0231871 0.907321
9.27768 -47.8427 87.6341 0.517059 0.0103664 0.855876
10.4283 -47.885 86.9239 0.570307 0.0463171 0.818572
11.2547 -47.8944 86.2827 0.620216 0.0368819 0.783561
12.2574 -47.8071 85.4693 0.657656 0.0222206 0.752365
13.1904 -47.6654 84.6147 0.674954 0.000870978 0.737858
13.9195 -47.3044 83.8631 0.725125 0.0228244 0.688226
14.4133 -46.5186 83.3377 0.723872 -0.000105191 0.689917
14.7656 -45.4946 82.9641 0.734924 0.0214822 0.677377
14.9485 -44.5185 82.7011 0.745003 0.0318492 0.666298
14.9649 -43.2106 82.6269 0.749978 0.0311263 0.660664
14.8308 -41.9444 82.6697 0.686977 0.0826569 0.721962
14.0349 -40.5411 83.2923 0.676872 0.0631736 0.733107
12.8569 -39.7103 84.2436 0.649379 0.0882013 0.75525
11.9851 -39.2733 84.9086 0.621691 0.117418 0.77418
11.1059 -38.9755 85.5446 0.607698 0.129828 0.783481
9.82073 -38.4885 86.3477 0.508499 0.133935 0.850581
8.56348 -37.9861 86.9458 0.426654 0.205491 0.880759
7.66281 -37.6082 87.2918 0.424316 0.208881 0.881093
6.57808 -37.1818 87.6427 0.368168 0.244857 0.896933
5.17526 -36.7529 87.9842 0.210951 0.2617 0.941282
3.71256 -36.5414 88.2746 0.176638 0.281855 0.941104
2.45281 -36.5228 88.4978 0.1977 0.373817 0.905137
1.3967 -36.5666 88.6102 0.0620479 0.387221 0.919889
-0.22367 -36.7416 88.7072 -0.0380419 0.367924 0.929065
-1.21289 -36.9145 88.7275 -0.112052 0.35361 0.926239
-1.72278 -37.0363 88.6744 -0.170766 0.355863 0.918686
-1.62411 -36.3096 88.4204 -0.183503 0.345306 0.92037
-3.32928 -36.6989 88.2165 -0.211717 0.370574 0.904338
-4.42036 -36.9097 88.0472 -0.229179 0.333001 0.914129
-5.35296 -37.1053 87.7314 -0.365037 0.230326 0.902052
-6.28405 -37.2354 87.3867 -0.389012 0.237476 0.889687
-7.29108 -37.3947 86.9243 -0.49749 0.169934 0.850659
-8.25651 -37.4464 86.3715 -0.516122 0.174113 0.838337
-9.10236 -37.429 85.8166 -0.571542 0.147384 0.807228
-10.3433 -37.3775 84.9049 -0.595091 0.146302 0.790229
-11.3057 -37.3788 84.1782 -0.603929 0.144167 0.783832
-12.6638 -37.7248 83.1755 -0.617454 0.109102 0.778361
-13.2704 -38.4504 82.7083 -0.657483 0.0661418 0.750557
-13.6007 -39.4127 82.4854 -0.672643 0.0718972 0.736355
-13.7559 -40.8495 82.4569 -0.720804 0.056545 0.690806
-13.7084 -42.2736 82.5753 -0.73632 0.0315554 0.675898
-13.702 -43.8083 82.6996 -0.734186 0.0869012 0.673365
-13.7466 -45.171 82.818 -0.749272 0.0654556 0.65895
-13.5052 -46.7926 83.147 -0.710639 0.0271341 0.703033
-12.852 -48.032 83.844 -0.683109 0.0237998 0.729929
-11.9629 -48.5068 84.6749 -0.664329 0.0288097 0.74685
-10.6765 -48.5873 85.7985 -0.632133 0.043803 0.772883
-9.75508 -48.5958 86.4636 -0.576226 0.0346523 0.816556
-8.6834 -48.6052 87.1812 -0.498399 0.0115479 0.86682
-7.60283 -48.6356 87.7927 -0.491664 0.0175702 0.870608
-6.49558 -48.6628 88.3498 -0.438766 -0.00573236 0.898583
-5.52939 -48.6705 88.7755 -0.367647 0.00665408 0.928952
-4.45669 -48.6255 89.1549 -0.333258 -0.0136867 0.942736
-3.33223 -48.5599 89.5356 -0.277917 -0.0284542 0.958942
-2.31263 -48.5593 89.7637 -0.170434 0.0243754 0.984515
-0.632213 -48.57 89.9376 -0.0697015 0.00431431 0.997557
0.892151 -48.6154 89.9585 0.0587459 0.00272939 0.998148
1.98554 -48.6819 89.901 0.0595008 0.0145963 0.998103
3.54918 -48.6984 89.7656 0.10309 0.0350448 0.994054
4.55669 -48.6792 89.5775 0.234895 -0.0224427 0.971045
5.90199 -48.6365 89.1633 0.294724 0.0131635 0.955487
7.51317 -48.5899 88.6526 0.30537 0.0394853 0.951414
8.94708 -48.6214 87.844 0.491456 0.0337418 0.869466
10.0539 -48.613 87.1884 0.51991 0.0439175 0.853
10.9319 -48.6315 86.5727 0.616175 0.0407601 0.786552
11.918 -48.5828 85.7859 0.653608 0.016885 0.755773
12.6653 -48.5362 85.0981 0.675766 0.00223609 0.737112
13.7295 -48.3524 84.1109 0.703877 0.0196514 0.709261
14.4751 -47.7126 83.2974 0.729934 0.0408705 0.682118
14.9636 -46.7358 82.7549 0.727152 0.000169813 0.686476
15.339 -45.4548 82.3218 0.744663 0.0419065 0.666123
15.4851 -44.378 82.0873 0.748279 0.0364395 0.662322
15.4541 -42.6813 82.0335 0.754327 0.037607 0.655421
15.2512 -41.2105 82.1829 0.72157 0.060034 0.687856
14.8225 -40.3801 82.5238 0.692291 0.0552386 0.719501
13.7394 -39.3805 83.4433 0.656702 0.0889459 0.748653
12.9817 -38.9575 84.0383 0.641537 0.102493 0.760179
11.6423 -38.3897 85.0288 0.609897 0.130185 0.781715
10.2254 -37.8856 86.0108 0.546829 0.141908 0.823829
9.31 -37.5299 86.479 0.425205 0.208076 0.880855
8.00734 -36.9888 86.9789 0.424208 0.209022 0.881111
6.87573 -36.5432 87.3471 0.370717 0.238835 0.897511
5.34237 -36.0298 87.7704 0.253961 0.254984 0.931662
4.1358 -35.8269 87.9832 0.163605 0.256784 0.951413
3.11675 -35.7843 88.1046 0.11077 0.288963 0.950733
1.54128 -35.8618 88.3104 0.0650191 0.347841 0.935065
0.391795 -35.9206 88.4307 0.0108344 0.32993 0.941101
-0.909593 -36.14 88.4402 -0.0489373 0.366348 0.929179
-1.31025 -36.2194 88.4496 -0.117902 0.356156 0.924469
-1.44105 -35.5169 88.1623 -0.117902 0.356156 0.924469
-0.00981286 -35.2446 88.1726 -0.0653971 0.323411 0.943993
1.15267 -35.1598 88.0947 0.0776016 0.331338 0.940314
2.59649 -35.0697 87.9369 0.110699 0.313077 0.943189
3.61014 -35.0209 87.8096 0.102834 0.320774 0.941557
4.79815 -35.1822 87.6783 0.241924 0.259712 0.933795
5.99546 -35.4794 87.3958 0.299008 0.273373 0.914239
7.11104 -35.895 87.0774 0.370717 0.238835 0.897511
8.0446 -36.2722 86.7829 0.402985 0.235953 0.883954
8.9854 -36.6679 86.4305 0.427682 0.237755 0.872098
10.0071 -37.0434 86.0072 0.54259 0.144247 0.826347
11.3041 -37.5147 85.1469 0.600125 0.139712 0.787475
12.1697 -37.7976 84.5188 0.61165 0.130523 0.780284
13.5735 -38.4468 83.4547 0.650755 0.106375 0.7518
14.4339 -38.9936 82.7865 0.669509 0.122378 0.732406
15.116 -39.6765 82.1572 0.718767 0.0779792 0.690864
15.7628 -40.9649 81.5693 0.761434 0.0386435 0.647061
15.9208 -42.1567 81.4662 0.757884 0.0414999 0.651032
15.9913 -43.2813 81.4346 0.787392 0.0166199 0.616229
15.9709 -44.6041 81.5144 0.783326 0.0362609 0.620551
15.7303 -46.1952 81.9162 0.78373 0.0382563 0.619916
15.4199 -47.1798 82.2767 0.725388 0.00557271 0.688316
14.6917 -48.581 83.1087 0.740916 0.0358541 0.670637
13.7821 -49.1659 84.0583 0.687228 -0.0039144 0.72643
12.6492 -49.3122 85.1152 0.679124 0.00636433 0.733975
11.7873 -49.3441 85.916 0.653608 0.016885 0.755773
10.4227 -49.3596 87.0116 0.619983 0.0356979 0.783766
9.16444 -49.3437 87.77 0.514206 0.057487 0.855734
8.26377 -49.3279 88.2686 0.475034 0.0667987 0.877427
7.21929 -49.3396 88.7772 0.299065 0.0271261 0.953754
5.98848 -49.3729 89.1488 0.289985 0.0159436 0.956892
4.60335 -49.4064 89.5397 0.257615 -0.00781217 0.965815
3.32607 -49.4224 89.8145 0.148926 0.0098641 0.987378
2.09285 -49.4095 89.9037 0.062013 0.0122513 0.997994
0.8145 -49.3605 89.9754 0.0393435 0.000414969 0.998998
-0.729278 -49.2977 89.9344 -0.071303 0.00924772 0.997411
-1.74851 -49.2773 89.8593 -0.105628 0.0131891 0.993724
-2.85032 -49.2764 89.6139 -0.233953 -0.0522411 0.970834
-3.83984 -49.3383 89.3629 -0.325771 -0.00823961 0.945363
-4.86436 -49.3877 88.9998 -0.333258 -0.0136867 0.942736
-5.89101 -49.4031 88.6376 -0.367647 0.00665408 0.928952
-6.80337 -49.3884 88.1955 -0.439461 -0.00457843 0.89825
-8.10457 -49.3477 87.5239 -0.497485 0.012387 0.867341
-9.1352 -49.3183 86.9218 -0.505278 0.00677393 0.86293
-9.96431 -49.3267 86.347 -0.576226 0.0346523 0.816556
-11.1112 -49.3197 85.4547 -0.657969 0.0370051 0.752123
-12.1764 -49.2656 84.5143 -0.663899 0.029316 0.74722
-13.0271 -49.0196 83.7122 -0.684716 0.0194568 0.728548
-13.6772 -47.9741 83.0443 -0.708758 0.0441644 0.704065
-14.0603 -47.0732 82.5943 -0.71258 0.0379319 0.700469
-14.2667 -45.2923 82.2372 -0.749479 0.0553517 0.65971
-14.2196 -44.2385 82.1748 -0.748031 0.0746599 0.659451
-14.2305 -42.3211 82.0266 -0.720243 0.0216216 0.693385
-14.2906 -41.2427 81.9248 -0.723308 0.0521863 0.68855
-14.2909 -40.0886 81.8355 -0.724487 0.0536568 0.687194
-14.0678 -38.8378 81.9549 -0.719366 0.0825111 0.689537
-13.5318 -37.6477 82.3487 -0.684086 0.115645 0.720091
-12.8621 -36.9788 82.8595 -0.65247 0.145248 0.742965
-11.9845 -36.6932 83.522 -0.61893 0.150139 0.770822
-11.0003 -36.626 84.2687 -0.59712 0.147834 0.78841
-9.90728 -36.6502 85.0994 -0.595909 0.146317 0.789609
-8.85529 -36.7037 85.8191 -0.535068 0.186044 0.824065
-7.97229 -36.7117 86.3911 -0.514348 0.178366 0.838487
-6.99143 -36.65 86.8975 -0.41138 0.234186 0.880861
-6.02387 -36.5076 87.3057 -0.384098 0.238511 0.891751
-5.09444 -36.3342 87.6391 -0.311429 0.284855 0.903341
-3.90868 -36.1097 87.8754 -0.199641 0.327372 0.923564
-2.82838 -35.8847 88.024 -0.186906 0.331913 0.924585
-1.62734 -35.5705 88.1449 -0.182244 0.340134 0.922542
-1.56607 -34.8214 87.8793 -0.138999 0.351343 0.925019
0.183925 -34.4665 87.9216 -0.0796442 0.342834 0.935633
1.65662 -34.4094 87.8059 0.0672163 0.317559 0.945853
2.70143 -34.3358 87.6754 0.102839 0.320777 0.941555
4.42733 -34.4003 87.5027 0.159194 0.347234 0.922649
5.54988 -34.6263 87.275 0.288699 0.296956 0.910138
6.74936 -35.0068 86.9914 0.346845 0.266929 0.898372
7.77009 -35.4152 86.6813 0.37244 0.227862 0.899611
8.66933 -35.808 86.3515 0.433087 0.232079 0.870936
9.74204 -36.2115 85.9375 0.449305 0.243387 0.859132
10.5876 -36.5104 85.487 0.583521 0.154321 0.797267
11.7244 -36.8887 84.7055 0.606856 0.148905 0.780683
12.5264 -37.1388 84.1177 0.614981 0.141755 0.775694
13.3204 -37.4695 83.5196 0.646502 0.13227 0.751203
14.1051 -37.8982 82.8992 0.655621 0.12033 0.745441
14.8553 -38.4137 82.2858 0.700937 0.101265 0.705246
15.4374 -39.0476 81.7518 0.719807 0.076955 0.689893
16.1608 -40.3794 81.0739 0.759622 0.0291791 0.649706
16.3711 -41.4889 80.8805 0.791389 0.0232802 0.610855
16.4469 -42.9139 80.8371 0.795276 0.026459 0.60567
16.468 -44.1148 80.857 0.783652 0.0381183 0.620029
16.4201 -45.1402 80.9794 0.783415 0.0378347 0.620347
16.1844 -46.5345 81.3601 0.784506 0.0359923 0.619076
15.8567 -47.634 81.7839 0.773751 0.00462869 0.633473
15.3315 -48.7414 82.41 0.74623 0.020909 0.665109
14.6299 -49.7208 83.2122 0.745063 0.000533127 0.666964
13.9268 -49.9771 83.9329 0.683424 0.0223346 0.72968
13.1133 -50.0429 84.6962 0.681736 0.02274 0.731243
12.296 -50.0931 85.4554 0.680959 0.0104527 0.732245
11.2215 -50.1197 86.3969 0.627076 0.00978041 0.778819
10.3247 -50.0978 87.0869 0.572836 0.00540769 0.818564
8.92666 -50.0838 87.9569 0.498427 0.0507932 0.86529
7.43512 -50.0872 88.7196 0.361649 -0.00255664 0.92966
5.89438 -50.1127 89.1897 0.287433 0.0164304 0.957659
4.38724 -50.1354 89.6078 0.221179 0.0145524 0.974784
2.85887 -50.1405 89.8652 0.093095 -0.00224688 0.995071
1.37089 -50.1221 89.9566 0.0356482 0.00385629 0.999005
0.059072 -50.0568 89.9838 0.0251401 -0.0161664 0.999553
-1.06044 -50.0256 89.9163 -0.0733566 0.00849702 0.997269
-2.06146 -50.0032 89.8039 -0.178969 -0.00794577 0.981966
-3.10199 -50.0254 89.5567 -0.232312 0.020028 0.972433
-4.22454 -50.0946 89.2588 -0.300512 0.0225025 0.952604
-5.28654 -50.1291 88.884 -0.334806 0.0452825 0.941197
-6.2538 -50.128 88.4782 -0.422636 0.00890942 0.905909
-7.59403 -50.0976 87.8155 -0.456869 0.0145758 0.889261
-8.55888 -50.0464 87.2671 -0.505246 0.0243646 0.86263
-9.53333 -50.0543 86.6802 -0.583267 0.0232817 0.811842
-10.5262 -50.063 85.9526 -0.591558 0.0142608 0.806136
-11.5571 -50.0496 85.0953 -0.663721 0.0293047 0.747378
-12.7772 -50.0309 83.9739 -0.68479 0.0221302 0.728398
-13.6399 -49.4596 83.1447 -0.711573 0.00814404 0.701594
-14.1584 -48.3436 82.5512 -0.749902 0.0194228 0.66126
-14.6713 -47.1471 81.9247 -0.755981 0.0370377 0.653416
-14.7903 -45.6357 81.6717 -0.752738 0.0520697 0.65623
-14.7308 -44.2622 81.6198 -0.711223 0.0461296 0.701451
-14.7441 -42.7829 81.5177 -0.709856 0.0324801 0.703598
-14.8297 -41.4901 81.3779 -0.721842 0.0370129 0.690892
-14.8248 -39.7851 81.2359 -0.739452 0.0633776 0.670218
-14.466 -38.1542 81.4525 -0.728988 0.076091 0.680283
-13.8016 -36.9351 81.9692 -0.679552 0.123098 0.723226
-13.0945 -36.2698 82.5134 -0.655433 0.147034 0.74007
-11.7326 -35.8825 83.5638 -0.622357 0.154299 0.767318
-10.9132 -35.87 84.194 -0.597543 0.145615 0.788503
-10.0124 -35.9055 84.8817 -0.546022 0.180556 0.815369
-8.8934 -35.9693 85.6043 -0.535371 0.239155 0.810041
-7.8496 -35.9832 86.2943 -0.494722 0.27272 0.823585
-6.79297 -35.9185 86.7903 -0.415272 0.289827 0.862293
-5.8476 -35.772 87.1849 -0.384098 0.238511 0.891751
-4.49231 -35.5311 87.5069 -0.258426 0.34363 0.902848
-3.39287 -35.3084 87.7029 -0.189949 0.330545 0.924428
-2.47076 -35.0831 87.8023 -0.178978 0.340534 0.923035
-2.64088 -34.388 87.5104 -0.178599 0.343468 0.922026
-0.894019 -33.9288 87.6024 -0.0974888 0.355857 0.929432
0.427938 -33.7274 87.6206 0.0262552 0.370455 0.928479
1.5994 -33.6844 87.5661 0.049835 0.344609 0.936839
2.65722 -33.6241 87.4312 0.109479 0.335173 0.935774
4.13988 -33.659 87.2707 0.157087 0.361187 0.917455
5.20244 -33.8292 87.0938 0.214214 0.378381 0.90052
6.23213 -34.1176 86.8839 0.311323 0.295705 0.90298
7.48863 -34.5662 86.5748 0.347897 0.266238 0.898156
8.44944 -34.9661 86.2434 0.434586 0.228076 0.871268
9.46466 -35.3877 85.8479 0.448479 0.245063 0.859107
10.6437 -35.7734 85.3005 0.534308 0.204233 0.816627
11.8489 -36.1758 84.4676 0.601434 0.157638 0.783216
13.0309 -36.5081 83.5805 0.637635 0.145246 0.75652
13.8164 -36.8858 82.9898 0.646711 0.132186 0.751027
14.5476 -37.3328 82.3898 0.683329 0.125921 0.71917
15.2646 -37.8072 81.7915 0.70115 0.101931 0.704917
15.9485 -38.7172 81.1809 0.727579 0.0789887 0.681375
16.4154 -39.5457 80.7125 0.786254 0.0241528 0.617123
16.7517 -40.5304 80.345 0.791159 0.0334512 0.610665
16.8791 -42.3108 80.2425 0.796243 0.0218695 0.604556
16.9247 -43.3182 80.2302 0.774396 0.0453489 0.631074
16.9488 -44.3936 80.2701 0.774059 0.0374528 0.631992
16.8867 -45.4243 80.4104 0.780978 0.0372899 0.62344
16.7302 -46.4754 80.6654 0.784453 0.0359946 0.619142
16.3467 -47.8746 81.1869 0.77161 0.0114413 0.635947
15.914 -48.9054 81.7362 0.764841 0.0104126 0.644063
15.4543 -49.7459 82.2768 0.751393 0.00410232 0.659842
14.7547 -50.5704 83.0667 0.742888 -0.00794158 0.669369
14.0662 -50.7375 83.8268 0.712383 0.00743028 0.700348
12.7912 -50.8169 85.0191 0.680704 0.021622 0.732239
11.8812 -50.8677 85.8567 0.663912 0.00899714 0.747482
10.9433 -50.8786 86.619 0.613327 0.00278538 0.789754
9.99762 -50.8679 87.3131 0.552659 0.0108431 0.833205
9.01364 -50.8214 87.9306 0.516554 -0.0177085 0.856059
7.68354 -50.8327 88.5928 0.424525 -0.0124632 0.905329
6.53787 -50.8457 89.0078 0.293633 0.012156 0.955823
5.34349 -50.8475 89.3486 0.25924 9.96592e-05 0.965693
4.24604 -50.8546 89.6468 0.228357 0.00132831 0.972884
2.78898 -50.8577 89.8576 0.120476 -0.0233138 0.992442
1.72749 -50.8578 89.9492 0.0366375 0.0117543 0.998918
0.705119 -50.835 89.9619 0.012534 0.00176944 0.99992
-0.63396 -50.7726 89.9521 -0.0953458 -0.0163029 0.994775
-1.93053 -50.7433 89.7943 -0.125741 -0.0364444 0.991393
-3.00069 -50.7568 89.5947 -0.245382 0.00806485 0.969225
-4.02607 -50.8162 89.3148 -0.266873 0.00158909 0.96373
-5.06667 -50.855 88.9959 -0.366506 0.0197919 0.929222
-6.13063 -50.852 88.5303 -0.403102 -0.00259302 0.915151
-7.14909 -50.8372 88.0541 -0.452633 0.0116441 0.891485
-8.03884 -50.8287 87.5837 -0.476945 0.000858342 0.878871
-8.96746 -50.7725 87.0472 -0.52433 0.00936117 0.851134
-9.90743 -50.7847 86.4164 -0.588211 0.0120159 0.808613
-10.9269 -50.8118 85.6721 -0.593876 0.0125882 0.804448
-11.7239 -50.7742 84.9697 -0.667143 0.0245593 0.744525
-12.6789 -50.7716 84.0905 -0.687892 0.022712 0.725455
-13.8193 -50.4954 82.9448 -0.736135 -0.0030466 0.676828
-14.4799 -49.065 82.2057 -0.750071 0.011872 0.661246
-14.861 -48.1026 81.7411 -0.755203 0.0239282 0.655054
-15.2844 -47.2393 81.2207 -0.755869 0.0371782 0.653542
-15.3806 -46.2433 81.0337 -0.75341 0.0471815 0.655856
-15.2767 -45.248 81.0818 -0.754005 0.0283138 0.655995
-15.26 -44.2381 81.0816 -0.711502 0.0471076 0.701103
-15.2852 -42.5655 80.9614 -0.710881 0.0317994 0.702591
-15.3553 -41.5712 80.7976 -0.760024 0.0505806 0.647803
-15.412 -40.4562 80.6493 -0.741629 0.0620908 0.667931
-15.2609 -39.0741 80.6872 -0.740528 0.0614262 0.669209
-14.8413 -37.4765 80.9821 -0.727001 0.0693195 0.683128
-13.9995 -36.1742 81.6538 -0.678833 0.114599 0.725245
-12.8546 -35.3566 82.5347 -0.636413 0.145264 0.757543
-12.0343 -35.152 83.1722 -0.622411 0.154295 0.767274
-11.2358 -35.1124 83.8011 -0.615666 0.159634 0.771668
-10.3533 -35.149 84.4837 -0.548503 0.185102 0.812708
-9.31931 -35.2208 85.1137 -0.493549 0.22172 0.84098
-8.46816 -35.2708 85.6752 -0.532356 0.241482 0.811347
-7.41763 -35.2841 86.2764 -0.435495 0.29689 0.849443
-6.17789 -35.1468 86.8271 -0.385852 0.314308 0.866541
-5.08872 -34.952 87.131 -0.249562 0.314587 0.915834
-3.87158 -34.7187 87.3813 -0.254762 0.305191 0.917504
-3.35047 -34.5887 87.4472 -0.169725 0.331527 0.927912
-3.32301 -33.8593 87.2022 -0.162067 0.315953 0.934821
-1.9395 -33.4714 87.3104 -0.153968 0.322752 0.933809
-0.876519 -33.1738 87.3185 -0.0995061 0.352262 0.930597
0.680762 -33.0016 87.324 0.00133025 0.326479 0.943751
1.73321 -32.9309 87.3259 0.0569751 0.285784 0.953494
3.6752 -32.922 87.0603 0.116506 0.276416 0.953822
4.85345 -33.0642 86.866 0.193826 0.298774 0.934428
5.9572 -33.321 86.712 0.245488 0.30978 0.917167
6.95624 -33.6558 86.4701 0.321667 0.282708 0.903663
7.89201 -34.0039 86.2457 0.363407 0.285554 0.885633
9.15906 -34.5333 85.7691 0.441511 0.235901 0.86569
10.2476 -34.9137 85.2785 0.478705 0.223138 0.849146
11.6488 -35.3688 84.4589 0.600616 0.157209 0.78393
12.7186 -35.602 83.6894 0.610604 0.132196 0.780237
13.5916 -35.8646 83.0129 0.630314 0.109767 0.768541
14.6762 -36.5618 82.1537 0.6777 0.0894598 0.729876
15.5591 -37.1212 81.4004 0.695718 0.0954207 0.711506
16.16 -37.9481 80.8555 0.734464 0.0836503 0.673472
16.9722 -39.4674 80.0098 0.783419 0.00482431 0.621475
17.2515 -40.5569 79.6958 0.796008 0.0226145 0.604858
17.3299 -41.8602 79.6348 0.792291 0.0217104 0.609685
17.4078 -43.1092 79.6224 0.774396 0.0453489 0.631074
17.4729 -44.1567 79.6119 0.775401 0.0340031 0.630552
17.363 -45.4918 79.8051 0.803881 0.00474786 0.594763
17.2154 -46.4828 80.0458 0.816045 0.0133542 0.577723
16.9722 -47.6774 80.3938 0.81823 0.00415098 0.574866
16.6841 -48.5984 80.8011 0.769009 0.0179572 0.638986
16.1179 -49.7571 81.5009 0.763557 0.00254717 0.645723
15.5605 -50.7653 82.1577 0.760728 0.00138715 0.649069
14.7797 -51.5175 83.0477 0.737991 0.0257176 0.67432
13.9693 -51.5233 83.9324 0.724257 0.0138631 0.689032
13.1403 -51.4958 84.7146 0.679838 0.021082 0.733057
12.2732 -51.5767 85.5136 0.655168 -0.00163317 0.755478
11.4983 -51.6009 86.1816 0.640734 0.00930578 0.767516
10.5754 -51.6255 86.906 0.60408 0.0101915 0.796845
9.41429 -51.5459 87.6739 0.516554 -0.0177085 0.856059
8.49643 -51.5206 88.1881 0.449649 -0.0163487 0.893054
7.24798 -51.5937 88.7849 0.42195 -0.00961693 0.906556
5.77813 -51.5982 89.2408 0.283813 0.00797661 0.958846
4.8014 -51.5639 89.5011 0.253615 0.014495 0.967197
3.19371 -51.5697 89.8014 0.119556 0.0151641 0.992712
2.08372 -51.5713 89.9346 0.0788929 -0.00829122 0.995762
0.960797 -51.5555 89.9573 0.0119243 -0.00919604 0.999886
-0.149597 -51.5247 89.9699 -0.0320508 -0.0272849 0.99802
-1.39715 -51.4986 89.8398 -0.124552 -0.0159275 0.992078
-2.51773 -51.4841 89.6963 -0.130754 -0.0209617 0.991183
-3.51817 -51.5316 89.463 -0.256818 0.0334815 0.965869
-4.52406 -51.561 89.1925 -0.291633 0.0145237 0.955626
-5.67229 -51.5684 88.7419 -0.403266 0.0316153 0.914534
-6.71149 -51.562 88.2808 -0.424804 0.0150078 0.904775
-7.66378 -51.5428 87.7885 -0.466908 0.0112461 0.884229
-8.86016 -51.4953 87.118 -0.5267 0.00340334 0.849894
-9.74888 -51.5071 86.5432 -0.567495 0.00666504 0.823015
-10.7146 -51.5503 85.8384 -0.597023 0.0123621 0.802122
-11.7512 -51.5179 84.9663 -0.671255 0.0155156 0.74102
-12.7857 -51.4992 84.0009 -0.69173 0.00506533 0.722138
-13.5463 -51.4737 83.2472 -0.725507 0.000234719 0.688005
-14.4951 -50.8234 82.2077 -0.736139 0.00380494 0.676785
-14.8105 -49.9379 81.8461 -0.753997 0.0100396 0.656752
-15.0586 -48.9871 81.5406 -0.760343 0.0135245 0.649376
-15.7854 -47.5653 80.6514 -0.780186 0.0207841 0.624464
-15.9035 -46.5222 80.453 -0.771191 0.0380438 0.634803
-15.7683 -45.2651 80.5179 -0.75335 0.0300162 0.65671
-15.7638 -43.7922 80.4992 -0.770172 0.0190956 0.637045
-15.7767 -42.4905 80.3921 -0.759995 0.0623261 0.646933
-15.9047 -41.3156 80.1393 -0.759782 0.0381585 0.649057
-15.9604 -40.1804 80.0056 -0.770907 0.0477179 0.634862
-15.7628 -38.8139 80.1072 -0.741987 0.0610649 0.667627
-15.5568 -37.6818 80.2425 -0.734035 0.0598864 0.676321
-14.9511 -36.4374 80.7611 -0.72503 0.0606611 0.685994
-14.3881 -35.6509 81.2148 -0.67838 0.10632 0.726978
-13.731 -34.9821 81.72 -0.656815 0.132847 0.741726
-12.4233 -34.4543 82.7158 -0.631864 0.150775 0.760258
-11.6159 -34.3616 83.344 -0.617634 0.146155 0.772765
-10.761 -34.3827 84.0307 -0.567805 0.192065 0.79722
-9.74746 -34.4766 84.6661 -0.495481 0.230929 0.837335
-8.82334 -34.5034 85.214 -0.51235 0.231974 0.826422
-7.59997 -34.6095 85.9323 -0.453589 0.305317 0.837273
-6.62161 -34.5462 86.4092 -0.39527 0.31254 0.863331
-5.63501 -34.3613 86.7498 -0.345429 0.331623 0.877802
-4.29276 -34.0828 87.0577 -0.261052 0.29535 0.919032
-3.82011 -34.007 87.1675 -0.210515 0.307408 0.926529
-3.86338 -33.1054 86.8603 -0.207492 0.304598 0.928367
-2.82328 -32.8576 86.9523 -0.147397 0.324105 0.934465
-1.8016 -32.7258 87.0662 -0.120003 0.334517 0.934255
-0.738755 -32.3911 87.0482 -0.0996495 0.304292 0.946665
0.548069 -32.294 87.1117 -0.0241527 0.283406 0.958696
1.62169 -32.1 87.082 0.0523569 0.287605 0.953169
2.62958 -32.0822 86.951 0.108277 0.252664 0.961463
4.3336 -32.2591 86.7221 0.207541 0.267415 0.940942
5.61498 -32.4611 86.5144 0.23602 0.300126 0.92304
6.69604 -32.7752 86.2812 0.295798 0.3045 0.905358
7.72236 -33.1321 86.0333 0.360411 0.288305 0.886083
8.70219 -33.5257 85.7098 0.410191 0.285531 0.866123
9.63579 -33.8386 85.3363 0.454138 0.233926 0.85956
10.6345 -34.2081 84.8621 0.514675 0.242001 0.822523
11.7606 -34.6563 84.23 0.601202 0.157557 0.783411
12.9897 -34.7849 83.325 0.597478 0.154638 0.786817
14.1488 -35.2453 82.4385 0.656635 0.117045 0.745071
15.2793 -36.0997 81.5359 0.683185 0.0940824 0.724109
16.0844 -36.5591 80.7787 0.722976 0.0877056 0.685005
16.6498 -37.4657 80.2646 0.73333 0.0726344 0.675982
17.1729 -38.6249 79.7505 0.793996 0.0106709 0.607532
17.739 -39.5695 79.0017 0.803629 0.022226 0.594617
17.8573 -41.4346 78.944 0.786655 0.0264257 0.616826
17.9693 -42.903 78.9004 0.783754 0.0580788 0.61835
18.0124 -44.6256 78.9162 0.808451 0.0020203 0.588547
17.7706 -45.8363 79.2591 0.80911 0.00359031 0.587559
17.5721 -47.2385 79.5422 0.817772 0.00188924 0.575539
17.3684 -48.2675 79.8344 0.817899 0.00133459 0.57536
17.0603 -49.0781 80.2861 0.819479 0.0102996 0.573014
16.6815 -49.8591 80.8292 0.76519 0.00515416 0.643775
16.1042 -51.0572 81.5202 0.761501 0.000483832 0.648164
15.6507 -51.7498 82.089 0.755042 0.0247945 0.655017
14.8177 -52.4725 83.0448 0.741486 0.0257994 0.670442
13.7599 -52.2721 84.1455 0.711393 0.00633128 0.702743
12.7667 -52.2658 85.081 0.679514 0.0192449 0.733408
11.9819 -52.3929 85.7633 0.656501 -0.00646885 0.754298
11.1712 -52.4228 86.4605 0.633278 -0.00454684 0.773559
10.3741 -52.5514 87.0706 0.569143 0.0137034 0.821231
9.12981 -52.4546 87.827 0.511676 -0.0148534 0.859042
8.01997 -52.3987 88.4226 0.416773 -0.00800402 0.908232
7.08475 -52.3121 88.8285 0.356769 -0.0298983 0.932663
6.06111 -52.4262 89.1647 0.293829 -0.00292027 0.955721
4.97928 -52.4528 89.4678 0.226627 -0.0081099 0.973292
3.75907 -52.3935 89.7185 0.199713 -0.0308625 0.979368
2.57892 -52.3819 89.8891 0.0788483 -0.00609663 0.995644
1.3752 -52.3809 89.9358 0.0387138 -0.0347264 0.998647
0.220045 -52.4056 89.9576 -0.0330718 -0.0277655 0.997906
-0.858139 -52.3943 89.8761 -0.0762898 -0.048654 0.995897
-1.94289 -52.3539 89.7542 -0.112174 -0.00823423 0.993491
-3.08156 -52.4059 89.6085 -0.201855 0.0215599 0.977703
-4.21708 -52.4241 89.2801 -0.314374 -0.0268867 0.948907
-5.43878 -52.4111 88.8738 -0.35768 0.0078578 0.932121
-6.43747 -52.3889 88.4151 -0.44459 -0.00434929 0.895723
-7.40602 -52.353 87.9349 -0.457052 0.00368515 0.889283
-8.30464 -52.3673 87.448 -0.508642 -0.00603987 0.860925
-9.21092 -52.4329 86.9108 -0.527059 0.0149532 0.849153
-10.4778 -52.3822 86.0274 -0.583743 0.00288438 0.811933
-11.5219 -52.3676 85.1907 -0.671873 0.0101686 0.740508
-12.389 -52.3926 84.3906 -0.685017 0.00666849 0.728423
-13.1855 -52.4039 83.6048 -0.715804 -0.0092652 0.698239
-13.9927 -52.3966 82.7774 -0.725339 0.000901177 0.688176
-14.6917 -51.8295 81.9967 -0.752062 0.00131047 0.659091
-15.1068 -51.045 81.5076 -0.763081 0.00278111 0.64629
-15.3608 -49.9976 81.2041 -0.759932 0.0101085 0.649924
-15.9021 -48.6797 80.5429 -0.780626 0.0212924 0.623846
-16.2883 -47.8226 79.9935 -0.796508 0.0177611 0.604312
-16.5748 -46.9553 79.6033 -0.79472 0.0105315 0.606885
-16.3939 -45.9908 79.8109 -0.782783 0.0232439 0.621841
-16.2627 -44.4672 79.9094 -0.777411 0.0313318 0.6282
-16.2055 -43.4367 79.9222 -0.785742 0.0366713 0.617458
-16.3573 -41.8277 79.6383 -0.784496 0.0354777 0.619117
-16.4477 -40.1897 79.3928 -0.783778 0.053271 0.618742
-16.3505 -38.9968 79.4711 -0.761117 0.0431082 0.646288
-16.2392 -37.9658 79.5038 -0.742856 0.0545598 0.667219
-15.8817 -36.9277 79.8229 -0.734956 0.0591546 0.675351
-15.1033 -35.6581 80.5408 -0.724808 0.053195 0.686894
-14.5733 -34.8887 80.9261 -0.676773 0.113144 0.727439
-13.9103 -34.1676 81.4281 -0.639731 0.0988616 0.762212
-12.8978 -33.7942 82.2268 -0.639427 0.0991516 0.762431
-12.0726 -33.5937 82.8373 -0.603505 0.133346 0.78613
-11.2541 -33.566 83.4828 -0.571749 0.18807 0.79575
-10.3379 -33.6334 84.0818 -0.511158 0.234623 0.826753
-9.40197 -33.8024 84.6792 -0.491504 0.235498 0.838429
-8.38944 -33.592 85.1702 -0.456956 0.267839 0.848198
-7.08369 -33.8146 85.935 -0.440089 0.274408 0.854877
-6.14202 -33.6614 86.3038 -0.36627 0.255027 0.894878
-4.9179 -33.4386 86.6722 -0.26719 0.299044 0.916045
-4.28878 -33.2359 86.7857 -0.257835 0.3004 0.918291
