-5.97887 47.8552 85.8272 -0.315272 -0.067388 0.946566
-4.96094 47.8811 86.1455 -0.220868 -0.0608378 0.972237
-3.96183 47.9081 86.331 -0.177565 -0.0365437 0.983429
-2.97447 47.9377 86.5089 -0.161693 -0.0458521 0.985614
-1.89792 47.97 86.6554 -0.133174 -0.0346092 0.990488
-0.839202 47.9802 86.7949 -0.0692181 -0.00762226 0.995273
0.186886 47.9636 86.7676 0.0379197 -0.0130961 0.999195
1.50354 47.9192 86.7007 0.115238 -0.0153224 0.992337
2.93644 47.8587 86.4716 0.180985 -0.0195816 0.982967
3.97306 47.8698 86.2264 0.239303 -0.0244655 0.970637
4.99322 47.8781 85.9728 0.258977 -0.0185578 0.965661
6.1273 47.8928 85.6594 0.267352 -0.0127729 0.963514
7.11631 47.909 85.3174 0.349069 -0.0336021 0.936493
8.29475 47.9117 84.8068 0.43483 -0.0145865 0.900394
9.41258 47.8402 84.2634 0.433719 -0.0187648 0.900837
10.7267 47.4605 83.5132 0.511083 -0.00533105 0.859084
11.5079 46.9319 82.9621 0.572819 0.00070271 0.819465
12.6745 46.0158 82.184 0.561965 0.00245735 0.827098
13.5269 45.2469 81.5792 0.618352 0.0372381 0.785019
14.486 44.1651 80.8113 0.667804 0.00287893 0.744305
15.1659 43.1622 80.2042 0.672635 0.00530082 0.739956
15.6035 42.2279 79.775 0.692998 -0.00833965 0.720892
15.7947 41.2316 79.5945 0.692313 0.00210543 0.721594
15.6228 40.0719 79.7581 0.637861 -0.0420021 0.768322
15.0117 39.3997 80.1882 0.615143 -0.0546059 0.786522
13.605 39.0371 81.2441 0.589723 -0.0973603 0.801715
12.6682 39.0774 81.9359 0.593042 -0.0730704 0.801468
11.6942 39.1993 82.5399 0.51594 -0.0424923 0.855569
10.6963 39.2817 83.1373 0.496643 -0.0513587 0.866196
9.54693 39.2767 83.7193 0.4493 -0.0851538 0.889313
8.65412 39.1856 84.1616 0.414655 -0.0938223 0.90438
6.92871 38.929 84.8532 0.385814 -0.0926795 0.917855
5.64824 38.752 85.2534 0.29167 -0.110277 0.950135
4.59891 38.7179 85.5671 0.261185 -0.129631 0.955992
3.50601 38.758 85.7596 0.159106 -0.109788 0.981131
2.45451 38.7676 85.9272 0.154593 -0.112018 0.981607
1.3617 38.7371 86.0381 0.101821 -0.0837173 0.991274
0.179197 38.6613 86.1511 0.0441698 -0.125618 0.988595
-1.07054 38.5914 86.0817 -0.0604638 -0.119629 0.990976
-2.83905 38.4618 85.8613 -0.175617 -0.118657 0.977274
-3.88201 38.3713 85.6583 -0.198091 -0.117855 0.972901
-4.92788 38.274 85.4085 -0.22978 -0.109197 0.967096
-6.02685 38.2858 85.1351 -0.251881 -0.115142 0.96088
-7.19366 38.2519 84.8004 -0.336083 -0.125884 0.931665
-8.18884 38.2389 84.3611 -0.403992 -0.143421 0.903448
-9.39792 38.1806 83.7854 -0.44996 -0.127611 0.88337
-10.3369 38.2529 83.2886 -0.471963 -0.107771 0.875006
-11.2343 38.4158 82.798 -0.522987 -0.114985 0.843963
-12.7727 38.5712 81.7945 -0.552348 -0.101234 0.827443
-13.6303 38.5322 81.1415 -0.60928 -0.0738732 0.789496
-14.4172 38.691 80.546 -0.626535 -0.0737217 0.775623
-14.1989 40.0866 80.8346 -0.636123 -0.0219719 0.770679
-13.977 41.2732 81.0333 -0.665839 -0.0116857 0.746003
-13.8016 42.4422 81.263 -0.67056 -0.0580875 0.739578
-13.5612 43.4878 81.5423 -0.618933 -0.0438337 0.783488
-12.9843 44.8337 82.0449 -0.623887 0.00123071 0.78135
-12.3379 45.6355 82.5049 -0.57921 -0.0209158 0.814117
-11.6691 46.3757 83.0425 -0.580433 -0.0262615 0.813698
-10.7505 47.2645 83.6628 -0.506456 -0.00907097 0.861656
-9.85401 47.7084 84.1729 -0.481633 -0.00858047 0.876269
-9.39385 47.7384 84.4162 -0.451784 -0.0272667 0.891336
-9.5441 48.5361 84.3419 -0.468912 -0.00343763 0.883214
-8.14689 48.5312 85.0668 -0.446501 -0.0251338 0.894155
-6.99866 48.5215 85.5129 -0.339669 -0.0427763 0.939571
-5.62484 48.5975 85.9828 -0.303223 -0.0526243 0.951458
-4.65005 48.6138 86.2549 -0.218417 -0.051735 0.973432
-3.5786 48.6447 86.4513 -0.177073 -0.0728654 0.981497
-2.4074 48.6869 86.6119 -0.127642 -0.0387249 0.99104
-1.20785 48.7135 86.7743 -0.131581 -0.0360215 0.990648
-0.160088 48.7055 86.7845 -0.00566402 0.0247669 0.999673
1.1171 48.6757 86.7266 0.0813301 0.00563943 0.996669
2.5105 48.5764 86.5631 0.149394 -0.00644889 0.988395
3.9057 48.6168 86.2618 0.23771 -0.0205533 0.97111
4.95449 48.62 85.9936 0.259723 -0.0119927 0.965585
6.3755 48.6378 85.6003 0.267436 -0.0125102 0.963494
7.35208 48.6546 85.2252 0.385431 -0.00177675 0.92273
8.79212 48.6514 84.5785 0.43206 -0.0169224 0.901677
9.7045 48.5761 84.1425 0.464407 -0.0324231 0.88411
11.0463 48.1318 83.3038 0.53245 -0.0189834 0.845613
11.8866 47.5246 82.698 0.574465 -0.00279199 0.818265
12.6494 46.9224 82.1813 0.588411 0.0289192 0.808043
13.7125 45.9836 81.3981 0.618541 0.0230777 0.785287
14.4149 45.2831 80.8775 0.647193 0.0205189 0.761012
14.9701 44.5881 80.3727 0.674221 0.00255579 0.738525
15.4895 43.8195 79.9027 0.683665 -0.00065152 0.729647
15.9482 42.9908 79.4524 0.692998 -0.00833965 0.720892
16.2855 42.0593 79.1172 0.693604 -0.00217433 0.720326
16.3707 40.3075 79.1043 0.666231 0.0293751 0.745167
15.9234 39.1862 79.4604 0.638 -0.041112 0.768263
15.207 38.641 79.9828 0.617102 -0.0276198 0.785932
14.1245 38.3198 80.8018 0.5891 -0.0379451 0.807026
13.0635 38.2944 81.5927 0.597501 -0.0485624 0.800397
12.0671 38.4439 82.2773 0.531916 -0.0594321 0.844326
11.1553 38.5076 82.8261 0.496313 -0.0630221 0.865715
10.0666 38.5781 83.4123 0.436063 -0.0541087 0.898287
8.96276 38.5189 83.939 0.438672 -0.0719215 0.895524
7.85507 38.3576 84.4108 0.386874 -0.0798379 0.91867
6.11277 38.0275 85.0267 0.303209 -0.114099 0.946003
5.09704 37.9747 85.3292 0.288379 -0.111888 0.950956
4.11083 38.0084 85.5772 0.198382 -0.127743 0.970835
3.09592 38.052 85.7444 0.155729 -0.111625 0.981473
2.02256 38.0385 85.9113 0.127774 -0.0981398 0.986477
0.877778 37.9599 86.0222 0.100839 -0.0832183 0.991416
-0.182761 37.9055 86.0176 -0.0268713 -0.164718 0.985848
-1.92812 37.8151 85.9282 -0.0422356 -0.160099 0.986197
-3.51172 37.6528 85.6422 -0.180731 -0.115736 0.976699
-4.58371 37.5362 85.3976 -0.218046 -0.121734 0.968314
-6.29027 37.5578 84.9582 -0.271568 -0.157445 0.949443
-7.64055 37.506 84.4843 -0.385507 -0.17035 0.906841
-8.99076 37.4432 83.8616 -0.426592 -0.145065 0.892733
-9.97477 37.451 83.3823 -0.484012 -0.120809 0.86649
-11.0715 37.6334 82.7747 -0.497456 -0.130587 0.857604
-12.2252 37.8276 82.0687 -0.549167 -0.10568 0.829003
-13.0778 37.854 81.5039 -0.579332 -0.0859854 0.809739
-13.899 37.7334 80.8553 -0.612018 -0.0762258 0.787162
-14.7731 37.3005 80.1293 -0.627915 -0.0719618 0.774757
-15.6611 36.5027 79.3249 -0.637194 -0.0583528 0.768487
-16.4181 36.2386 78.6763 -0.637723 -0.0586536 0.768024
-15.6165 37.4706 79.4384 -0.637144 -0.0585413 0.768515
-15.0544 38.1292 79.966 -0.640128 -0.0662984 0.765402
-14.933 39.2407 80.1597 -0.640537 -0.0635805 0.76529
-14.7363 40.3306 80.3894 -0.636256 0.00821306 0.771434
-14.4896 41.5991 80.5797 -0.651238 -0.00184406 0.758549
-14.3511 42.5727 80.7658 -0.68527 -0.0441987 0.726947
-13.9678 44.2703 81.2258 -0.661709 -0.0315924 0.748419
-13.3778 45.4393 81.7175 -0.621303 0.0165349 0.78339
-12.7548 46.1989 82.2067 -0.615869 -0.0219025 0.787514
-11.9823 47.0273 82.8284 -0.592303 -0.0281949 0.805191
-11.0148 48.0043 83.5077 -0.521415 -0.00864816 0.853194
-10.2389 48.4623 83.9672 -0.474487 -0.0021796 0.88026
-10.1508 49.3059 84.0169 -0.474531 -0.00221841 0.880236
-8.72208 49.2791 84.7761 -0.46088 -0.00167254 0.887449
-7.06529 49.2632 85.5211 -0.36005 -0.00832982 0.932896
-5.7935 49.3224 85.9684 -0.282809 -0.0378791 0.957993
-4.74425 49.3406 86.2493 -0.25109 -0.0216318 0.967701
-3.69325 49.3654 86.4833 -0.149359 -0.0574217 0.986624
-2.60345 49.4062 86.6192 -0.122466 -0.043475 0.99152
-1.51597 49.4364 86.7578 -0.0698074 -0.00623953 0.995114
-0.458719 49.437 86.7647 -0.00566402 0.0247669 0.999673
0.629086 49.4129 86.7633 0.0796472 0.0190766 0.996612
1.8484 49.3825 86.6469 0.126531 0.0141127 0.991804
3.34675 49.3776 86.4024 0.183612 0.0150971 0.982868
4.75415 49.3649 86.054 0.253354 -0.00990273 0.967323
5.73658 49.3688 85.7869 0.267045 -0.011938 0.96361
6.69861 49.3837 85.5023 0.33702 -5.88047e-05 0.94006
8.20438 49.4077 84.8679 0.393115 -0.00124786 0.919473
9.13198 49.3917 84.4329 0.429372 -0.019527 0.902917
10.382 49.2119 83.7821 0.534016 -0.0192833 0.843991
11.2092 48.9109 83.2072 0.581268 -0.00530574 0.813649
12.016 48.315 82.6148 0.587004 -0.00778751 0.80954
12.8488 47.6448 82.0117 0.589203 0.0267026 0.807543
13.7294 46.8885 81.3735 0.619946 0.0098577 0.784582
14.6515 45.992 80.655 0.620414 0.0242243 0.783762
15.2487 45.2803 80.1111 0.683684 0.0105514 0.729702
15.7845 44.5067 79.62 0.688131 0.00659788 0.725522
16.2639 43.7025 79.1592 0.691385 -0.00915483 0.722428
16.6915 42.8181 78.7389 0.682422 -0.00240883 0.730817
16.9681 41.5549 78.5128 0.674885 0.0356063 0.737064
16.9805 40.186 78.5643 0.664147 0.00116989 0.747059
16.7076 39.2202 78.7696 0.665672 -0.0325811 0.745532
16.1658 38.3884 79.2182 0.653283 -0.0257719 0.756447
14.8627 37.7102 80.2535 0.620504 -0.00163633 0.784199
14.0122 37.5144 80.8537 0.578515 -0.0294581 0.815137
13.1388 37.5271 81.4903 0.572544 -0.0617987 0.816895
11.8607 37.7536 82.3486 0.528633 -0.0727342 0.845507
10.278 37.8549 83.2611 0.460208 -0.0651539 0.885103
8.71334 37.7839 84.0112 0.400802 -0.0588516 0.913811
7.28176 37.5041 84.5718 0.34717 -0.106714 0.930823
5.70648 37.2389 85.0568 0.299547 -0.118145 0.946654
4.71491 37.2507 85.3105 0.233973 -0.151227 0.96041
3.73859 37.3101 85.5566 0.194041 -0.133503 0.970865
2.71825 37.3434 85.7236 0.155664 -0.111679 0.981474
1.64196 37.2946 85.8874 0.12833 -0.0969481 0.986528
0.557471 37.2075 85.9095 -0.0140787 -0.163641 0.986417
-0.863613 37.1473 85.8649 -0.0407362 -0.160477 0.986198
-1.95661 37.0864 85.809 -0.0879833 -0.162646 0.981663
-3.34566 36.9021 85.5835 -0.159602 -0.142749 0.976215
-4.47054 36.7941 85.3308 -0.216022 -0.11873 0.969142
-6.01558 36.8223 84.9221 -0.302057 -0.125852 0.944946
-7.55816 36.7851 84.3822 -0.385932 -0.172603 0.906237
-8.60102 36.7354 83.9337 -0.42076 -0.135397 0.897009
-10.0404 36.699 83.2413 -0.466173 -0.128167 0.87448
-11.5841 36.9975 82.382 -0.501172 -0.11491 0.857683
-12.4559 37.133 81.827 -0.550278 -0.105466 0.828293
-13.4359 37.0825 81.1505 -0.611367 -0.0777083 0.787523
-14.7515 36.5331 80.0702 -0.611711 -0.0745445 0.787541
-15.5859 35.6281 79.3235 -0.637838 -0.0561326 0.768122
-16.1693 34.5532 78.8046 -0.617322 -0.021489 0.786408
-16.5521 33.5391 78.4773 -0.619601 -0.0199125 0.784664
-17.0053 31.8606 78.0723 -0.626761 -0.0079144 0.779169
-17.5144 29.8596 77.6418 -0.619378 -0.0193586 0.784807
-17.8527 28.8182 77.3626 -0.614846 -0.00990317 0.788584
-18.3461 27.3951 76.9455 -0.614532 -0.0323945 0.788044
-18.721 26.3336 76.6024 -0.604978 -0.0376 0.795335
-19.3456 25.0168 76.0842 -0.598342 -0.0289735 0.800717
-20.1489 24.0403 75.4485 -0.60821 -0.0256933 0.79336
-20.8123 23.3786 74.9172 -0.609061 -0.0234601 0.792772
-21.8829 22.7438 74.0222 -0.630884 -0.0293723 0.775321
-22.3981 23.6252 73.6335 -0.639189 -0.0124481 0.768873
-22.8677 24.556 73.245 -0.644474 -0.00898236 0.764565
-23.2449 25.4546 72.9486 -0.643011 -0.0293075 0.765295
-23.5316 26.4607 72.7452 -0.635112 -0.0131406 0.772304
-23.6808 27.5902 72.6445 -0.659361 -0.0162072 0.751651
-23.5757 29.1373 72.7231 -0.647878 0.0140569 0.761612
-23.3508 30.1873 72.8927 -0.645408 0.0169045 0.763647
-22.9115 31.1622 73.2294 -0.642548 0.0436745 0.765
-22.2616 32.1623 73.728 -0.647642 0.0385868 0.760966
-21.5168 33.0645 74.2877 -0.622589 0.060293 0.780219
-20.7535 33.8504 74.8397 -0.630484 0.064262 0.773538
-19.794 34.5651 75.6117 -0.683705 0.0840312 0.724904
-18.8504 35.2005 76.4791 -0.705089 0.0553761 0.706953
-17.9499 35.8309 77.2971 -0.669165 -0.0109935 0.742869
-17.0235 36.6439 78.1665 -0.669511 -0.0408653 0.741655
-16.461 37.2639 78.7162 -0.672145 -0.0466402 0.738949
-15.9976 38.0537 79.1647 -0.640901 -0.0608811 0.765179
-15.6087 38.9831 79.5701 -0.644091 -0.0606314 0.762542
-15.3762 40.0669 79.8537 -0.641558 -0.0605622 0.764673
-15.1185 41.3013 80.0561 -0.64796 0.0184745 0.76145
-14.9059 42.632 80.2513 -0.652252 -0.0252273 0.757582
-14.6106 44.1189 80.6113 -0.685068 -0.0400967 0.727374
-14.201 45.4171 81.069 -0.662058 -0.0323981 0.748055
-13.6881 46.1898 81.4825 -0.613403 -0.0161957 0.789604
-13.0501 46.8796 81.996 -0.620823 -0.0246038 0.783564
-12.0967 47.8794 82.7816 -0.605262 -0.0298474 0.795236
-11.4409 48.5808 83.2307 -0.574965 0.0158554 0.818017
-10.7832 49.1376 83.6754 -0.49401 -0.0175859 0.868851
-10.833 49.963 83.6384 -0.569607 -0.00213001 0.821878
-11.7588 49.2553 82.9955 -0.577972 0.0156402 0.815901
-12.4864 48.4463 82.4988 -0.597552 -0.0075268 0.800951
-13.3317 47.5668 81.7938 -0.62051 -0.0304707 0.783582
-14.0714 46.8008 81.1783 -0.651459 0.00125763 0.758683
-14.8263 45.4981 80.4939 -0.678924 -0.0347661 0.733288
-15.2637 43.8754 79.9859 -0.659836 -0.033984 0.750091
-15.4818 42.8094 79.7615 -0.652205 -0.0252981 0.75762
-15.718 41.2552 79.5464 -0.653406 0.0230453 0.756612
-15.9072 40.2355 79.3494 -0.702721 -0.0169965 0.711247
-16.3699 38.6987 78.8644 -0.690399 -0.00262636 0.723123
-16.9078 37.8248 78.3452 -0.677211 -0.0361013 0.734795
-18.0226 36.702 77.263 -0.723174 -0.00613992 0.686383
-19.0051 35.9325 76.2522 -0.706778 0.0935641 0.70122
-19.8374 35.3528 75.4795 -0.695196 0.069733 0.71513
-20.8861 34.637 74.6679 -0.628205 0.0604682 0.775689
-21.6763 33.8535 74.0968 -0.623084 0.0626259 0.779644
-22.6009 32.757 73.409 -0.647569 0.0468121 0.760532
-23.2815 31.7208 72.8869 -0.642503 0.0436113 0.765041
-23.7309 30.8665 72.5563 -0.643784 0.030427 0.764506
-24.019 29.9338 72.331 -0.647386 0.0149672 0.762015
-24.1983 28.75 72.1995 -0.655232 0.00425536 0.755311
-24.2482 27.6934 72.1482 -0.659526 -0.0111867 0.751587
-24.1457 26.6836 72.2166 -0.658121 -0.0143565 0.75277
-23.8415 25.4294 72.4438 -0.64659 -0.0298156 0.762254
-23.3538 24.1619 72.8257 -0.649659 -0.0140474 0.76009
-22.6339 22.8244 73.4158 -0.639094 -0.0232656 0.768665
-22.1423 21.8789 73.7803 -0.629734 -0.0279338 0.776308
-21.3877 21.6288 74.3845 -0.629353 -0.0210485 0.776822
-20.7316 22.4727 74.9448 -0.626863 -0.0322911 0.77846
-20.0872 23.1607 75.4679 -0.609061 -0.0234601 0.792772
-19.4267 23.8241 75.9908 -0.59676 -0.0197252 0.802177
-18.8472 24.5685 76.4402 -0.597443 -0.0243668 0.801528
-18.1847 26.0322 76.9975 -0.602133 -0.031278 0.797777
-17.8314 27.0626 77.3183 -0.604492 -0.0433316 0.795432
-17.3239 28.5148 77.7524 -0.572575 -0.0524411 0.818173
-17.0164 29.5138 78.0203 -0.61376 -0.0187204 0.789213
-16.5866 31.119 78.4017 -0.625407 -0.0111469 0.780209
-16.3312 32.2223 78.6193 -0.627183 -0.0099768 0.778808
-15.8187 33.7852 79.0626 -0.619601 -0.0199125 0.784664
-15.3683 34.7051 79.4299 -0.592808 -0.0526284 0.803218
-14.3153 35.9086 80.35 -0.607806 -0.0750171 0.790534
-13.4551 36.3191 81.0595 -0.584511 -0.0896413 0.805707
-12.0225 36.3412 82.0232 -0.551452 -0.0945697 0.828829
-11.067 36.1196 82.5664 -0.500959 -0.116165 0.857638
-9.81819 35.9475 83.2285 -0.433409 -0.143466 0.889705
-8.81947 35.9812 83.7186 -0.42627 -0.138928 0.89383
-7.77792 36.0506 84.1714 -0.374326 -0.14818 0.91538
-6.4776 36.0886 84.6763 -0.307269 -0.136383 0.941727
-5.25473 36.0594 85.065 -0.260679 -0.12102 0.956737
-3.5242 36.0998 85.4441 -0.159134 -0.131041 0.977583
-1.85795 36.3601 85.6954 -0.0870761 -0.166906 0.981065
-0.242495 36.4244 85.7752 -0.0297033 -0.150674 0.988034
1.26489 36.5427 85.8176 0.0317806 -0.169541 0.983519
2.35117 36.6309 85.6908 0.15525 -0.141413 0.977701
3.38124 36.6216 85.5244 0.169538 -0.144963 0.974712
4.36427 36.5478 85.3025 0.231843 -0.115738 0.965844
5.34659 36.4858 85.0589 0.24511 -0.121065 0.961801
6.35348 36.5528 84.7739 0.309721 -0.0919634 0.94637
7.7742 36.8911 84.3293 0.344739 -0.0789932 0.93507
8.70309 37.0697 83.9693 0.402657 -0.0606967 0.912798
9.92241 37.1282 83.3843 0.446569 -0.076764 0.891304
11.0124 37.0775 82.7854 0.494147 -0.0844416 0.865218
12.1044 36.9516 82.1167 0.544373 -0.0752601 0.83546
12.9338 36.8041 81.56 0.546455 -0.0705756 0.834496
14.1701 36.7629 80.7154 0.575846 -0.026737 0.817119
15.5633 37.1511 79.6686 0.630094 -0.0229048 0.776129
16.3291 37.569 79.0496 0.653048 -0.0234161 0.756694
16.9609 38.3027 78.5041 0.667894 -0.021882 0.743935
17.3719 39.2119 78.1751 0.666343 -0.0318869 0.744963
17.5926 41.001 77.9629 0.742313 -0.0236959 0.669629
17.4085 42.5878 78.0844 0.67538 0.00667583 0.737439
17.0213 43.5764 78.4316 0.68388 -0.00160579 0.729471
16.5757 44.3892 78.8606 0.692907 0.00302196 0.72102
16.0851 45.1827 79.3286 0.688431 0.00688778 0.725234
15.5238 45.9733 79.8433 0.683985 0.0053911 0.729455
14.9214 46.6552 80.4072 0.662184 0.0139772 0.748547
13.7402 47.8049 81.3533 0.640039 0.00638012 0.768069
12.6113 48.722 82.19 0.587618 -0.0109268 0.809064
11.6801 49.4644 82.8685 0.585869 -0.00699766 0.81037
10.9245 49.8486 83.4023 0.572354 0.00359675 0.819997
9.79422 50.0861 84.127 0.454296 0.0190606 0.889759
8.68872 50.1419 84.6485 0.426086 -0.00552836 0.904666
7.62682 50.1433 85.1155 0.396646 0.00260094 0.917968
6.4196 50.1179 85.5797 0.290844 0.0106879 0.956707
5.20006 50.1074 85.944 0.28426 0.0102658 0.958692
3.84292 50.0998 86.2772 0.231986 0.0203403 0.972501
2.86138 50.0898 86.4802 0.18588 0.0205575 0.982357
1.31443 50.1016 86.6953 0.0981557 0.00755903 0.994919
0.146626 50.1425 86.7665 -0.00781519 0.00184709 0.999967
-1.07738 50.1558 86.7559 -0.0163315 0.0107885 0.999745
-2.32367 50.1375 86.6756 -0.121492 -0.0214765 0.99236
-3.54713 50.095 86.525 -0.139234 -0.00491494 0.989944
-4.69383 50.0686 86.2789 -0.251082 -0.0223496 0.96768
-5.83139 50.0533 85.9743 -0.270635 -0.00844537 0.962519
-6.98428 50.0071 85.5585 -0.357747 -0.008003 0.933782
-8.13046 50.0091 85.0781 -0.45684 0.000799156 0.889548
-9.03891 50.0434 84.6109 -0.453022 -0.00821969 0.891382
-10.0182 50.0967 84.0973 -0.472067 -0.0117497 0.881484
-10.6986 50.0344 83.7319 -0.522417 -0.00339274 0.85058
-11.0078 50.7602 83.5202 -0.529144 -0.00654424 0.848105
-11.8194 50.3102 82.9391 -0.579289 -0.0201975 0.814866
-12.6643 49.2636 82.3555 -0.577331 0.0165859 0.816341
-13.3719 48.4956 81.805 -0.617572 -0.0338575 0.785785
-14.4046 47.4378 80.8913 -0.651492 -0.0105893 0.758581
-15.1104 46.4861 80.2619 -0.678742 -0.0221889 0.734042
-15.4287 45.5616 79.9392 -0.67888 -0.0346561 0.733329
-15.7832 44.2438 79.5634 -0.641648 -0.0211131 0.766706
-16.0572 42.9674 79.2784 -0.647445 -0.0472844 0.760597
-16.1957 41.7779 79.1089 -0.681692 0.00315281 0.730511
-16.3713 40.6564 78.9013 -0.704982 -0.0195916 0.708955
-16.6655 39.5506 78.5852 -0.690757 -0.00266504 0.722748
-17.0668 38.622 78.2244 -0.679436 -0.00953034 0.733494
-17.7723 37.7645 77.5359 -0.682014 -0.0331803 0.730544
-18.3811 37.2717 76.809 -0.765059 0.0304583 0.64302
-19.437 36.45 75.746 -0.707734 0.0945245 0.700127
-20.2002 35.9387 75.0791 -0.658799 0.0987464 0.745004
-21.4553 35.0359 74.1789 -0.629458 0.0906374 0.771073
-22.4249 33.9978 73.4661 -0.637583 0.0668963 0.767471
-22.9945 33.2905 73.0342 -0.64946 0.0537754 0.758491
-23.7285 32.1165 72.4909 -0.639868 0.0428063 0.767292
-24.3474 30.8432 72.0334 -0.647251 0.024602 0.761828
-24.677 29.5503 71.7787 -0.656648 0.00478243 0.754028
-24.7873 28.5117 71.6771 -0.664399 -0.00227644 0.74737
-24.8094 27.4691 71.6506 -0.661638 -0.0104735 0.749731
-24.562 25.8714 71.8399 -0.659058 -0.0125524 0.751987
-24.2687 24.8322 72.059 -0.646831 -0.020959 0.762301
-23.8365 23.7759 72.4073 -0.648089 -0.0118864 0.761468
-23.3515 22.9093 72.8061 -0.648844 -0.0185347 0.760696
-22.8627 21.9823 73.1998 -0.639133 -0.0236104 0.768624
-22.3983 20.8717 73.5396 -0.630127 -0.0245487 0.776104
-22.1669 19.6789 73.6885 -0.632031 -0.0285911 0.774414
-22.2498 18.6426 73.5802 -0.631738 -0.03053 0.77458
-22.6698 17.5304 73.1876 -0.636807 -0.0378438 0.770093
-23.1338 16.6759 72.7593 -0.637313 -0.0401883 0.769557
-23.6402 15.9405 72.3063 -0.634238 -0.0353707 0.772326
-24.4302 14.8633 71.6004 -0.642182 -0.0368186 0.765667
-25.06 13.6209 71.0137 -0.6452 -0.0356139 0.763183
-25.3108 12.4513 70.7601 -0.643806 -0.0244424 0.764798
-25.0103 10.6851 70.9758 -0.658097 -0.0188752 0.752696
-24.0844 9.53032 71.7236 -0.637282 -0.0352586 0.769822
-23.1586 8.97506 72.4806 -0.644476 -0.00285219 0.764616
-22.2813 8.78573 73.2176 -0.643588 -0.000533884 0.765371
-21.2199 9.15415 74.0799 -0.61099 -0.0228113 0.791295
-20.4113 9.82039 74.7195 -0.611897 -0.0208942 0.790656
-19.6801 10.9829 75.324 -0.589804 -0.028241 0.806477
-19.3598 12.1101 75.5719 -0.561621 -0.0229075 0.827077
-19.4787 13.8527 75.5418 -0.589082 -0.0210147 0.807736
-19.7973 14.8319 75.3297 -0.594678 -0.029037 0.803392
-20.2052 15.7705 75.0733 -0.591325 -0.0367605 0.805593
-20.6881 16.8025 74.7664 -0.606963 -0.0296029 0.793833
-21.2744 18.0134 74.3531 -0.628224 -0.0361681 0.777172
-21.8099 18.7915 73.9459 -0.633645 -0.0299394 0.773045
-21.5965 19.8401 74.1599 -0.632502 -0.0256739 0.77413
-21.1139 20.8987 74.5856 -0.632132 -0.0231521 0.774515
-20.3314 21.9238 75.2464 -0.619201 -0.0264636 0.784671
-19.3663 22.9156 76.0115 -0.606693 -0.0228032 0.794603
-18.6951 23.6277 76.5207 -0.569914 -0.0412577 0.820668
-18.1702 24.422 76.9226 -0.564375 -0.0522396 0.823747
-17.6399 25.782 77.3968 -0.582488 -0.0484362 0.810925
-17.2146 26.9562 77.7518 -0.570582 -0.0329086 0.820581
-16.7378 28.3683 78.1527 -0.572335 -0.0519676 0.818372
-16.3888 29.5101 78.4644 -0.566606 -0.0496114 0.822494
-16.0535 30.7756 78.7706 -0.569878 -0.0494034 0.82023
-15.7445 32.1084 79.0546 -0.576394 -0.0327596 0.816513
-15.3117 33.3828 79.4153 -0.579902 -0.0332818 0.814005
-14.8059 34.2882 79.8238 -0.607406 -0.0702233 0.791281
-14.1524 35.0814 80.3967 -0.608091 -0.0726886 0.790529
-13.2274 35.6089 81.1286 -0.560457 -0.0997958 0.822142
-12.0391 35.6126 81.9285 -0.527008 -0.105377 0.842748
-11.0777 35.3548 82.4562 -0.500357 -0.112617 0.858454
-9.5602 35.1861 83.2255 -0.430669 -0.158982 0.888397
-8.65805 35.2609 83.6739 -0.41141 -0.161007 0.896924
-7.01257 35.3509 84.3776 -0.376257 -0.140378 0.915819
-5.36597 35.3338 84.9304 -0.309961 -0.150292 0.93877
-4.29704 35.2896 85.1705 -0.202764 -0.135944 0.969744
-3.04444 35.4009 85.4096 -0.112983 -0.127507 0.985378
-1.95414 35.5894 85.5576 -0.0817184 -0.162161 0.982434
-0.825034 35.6685 85.6293 -0.0437181 -0.157827 0.986498
0.861171 35.7774 85.6983 0.030189 -0.17063 0.983422
1.98223 35.9122 85.6341 0.0808469 -0.194441 0.977577
3.02798 35.9394 85.484 0.166825 -0.14613 0.974999
4.0197 35.8651 85.2879 0.181462 -0.150863 0.971757
5.00109 35.7704 85.0564 0.24372 -0.121481 0.96211
6.00588 35.7483 84.7843 0.259729 -0.126973 0.957294
7.04587 35.9445 84.4875 0.321263 -0.0950047 0.942136
8.48898 36.3221 84.0074 0.359739 -0.0802784 0.929252
9.40958 36.4205 83.5738 0.451357 -0.092921 0.887491
10.3921 36.3928 83.06 0.481132 -0.0905983 0.871954
11.4354 36.3376 82.4755 0.490456 -0.0823962 0.867505
12.4812 36.1299 81.7998 0.542697 -0.0698818 0.837016
13.5275 35.9872 81.1057 0.55116 -0.067854 0.831634
14.3607 36.0354 80.5571 0.563049 -0.049037 0.824596
15.3601 36.2893 79.8169 0.631596 -0.0233952 0.774909
16.376 36.6995 78.9818 0.633886 -0.00413788 0.773266
17.0835 37.2934 78.3703 0.644894 0.0216215 0.763966
17.5996 38.1783 77.9268 0.667122 -0.0269987 0.744441
17.9419 39.1792 77.5732 0.74391 0.0184315 0.668022
18.0995 40.5364 77.3828 0.744355 -0.0226881 0.667398
18.107 41.5647 77.4077 0.750908 -0.0140346 0.660138
17.955 42.8725 77.5428 0.707661 0.0292547 0.70592
17.5697 43.8376 77.8941 0.703443 0.0105219 0.710499
17.0524 44.7732 78.4002 0.693822 0.00342178 0.720138
16.5262 45.6423 78.9029 0.69326 0.00317706 0.72068
15.7631 46.7008 79.619 0.68369 4.93588e-05 0.729772
15.1502 47.3473 80.1928 0.662035 0.0123937 0.748726
14.367 48.1374 80.836 0.64054 -0.0130888 0.767814
13.7103 48.7421 81.3725 0.61357 0.00371439 0.789631
12.8464 49.4127 82.0283 0.586332 -0.00971226 0.81001
11.7629 50.3073 82.8157 0.578365 -0.00151213 0.815742
10.7335 50.7009 83.5298 0.567172 0.0032832 0.823592
9.56198 50.8593 84.2142 0.479394 0.0491534 0.87622
8.6571 50.8705 84.6683 0.411366 -0.00186714 0.911314
6.95665 50.874 85.403 0.393715 0.0157439 0.918998
5.53918 50.8555 85.8349 0.286446 0.014959 0.957968
4.37065 50.8324 86.1341 0.232627 0.0135617 0.97247
2.90863 50.8351 86.455 0.185084 0.0208477 0.982501
1.84227 50.8365 86.6376 0.0981557 0.00755903 0.994919
0.808266 50.8401 86.7189 0.0690616 0.022281 0.997347
-0.367865 50.8585 86.7596 -0.0155685 0.0106954 0.999772
-1.60838 50.8645 86.7304 -0.0269124 0.0196155 0.999439
-2.85852 50.8392 86.6246 -0.139504 -0.00114845 0.989891
-4.06292 50.8056 86.4335 -0.15851 0.0184687 0.987182
-5.18584 50.8057 86.1623 -0.266296 -0.0120034 0.963721
-6.17297 50.7836 85.8727 -0.308472 0.00952224 0.95067
-7.5118 50.7164 85.3611 -0.358566 -0.00587684 0.933483
-8.56984 50.7706 84.8601 -0.447436 -0.0172282 0.894149
-9.58073 50.813 84.3466 -0.47604 -0.018358 0.879232
-10.431 50.7951 83.8884 -0.504717 0.000494743 0.862226
-10.5751 51.5049 83.8097 -0.505634 -0.0153516 0.862331
-9.58959 51.5282 84.3529 -0.469331 -0.0073274 0.882961
-8.61496 51.5051 84.8507 -0.440325 -0.00923037 0.897744
-6.98836 51.4839 85.5642 -0.362589 -0.00804752 0.931883
-5.76251 51.5349 85.9983 -0.308472 0.00952224 0.95067
-4.61731 51.5353 86.3267 -0.233751 0.0272164 0.970926
-3.55764 51.5448 86.5017 -0.158222 0.0116067 0.987332
-2.45238 51.5662 86.6776 -0.122924 0.0339373 0.991028
-1.29086 51.5697 86.73 -0.0277274 0.000436401 0.99961
-0.141123 51.5542 86.7578 0.0086436 0.0147721 0.999232
0.980784 51.5407 86.6961 0.0726297 0.0107767 0.997259
2.40975 51.599 86.5282 0.181961 0.0267918 0.982941
3.48494 51.5581 86.3357 0.199683 0.00449228 0.979253
4.46006 51.5658 86.1022 0.234294 0.013546 0.972071
6.15665 51.5921 85.6343 0.294508 0.025269 0.955254
7.10732 51.6308 85.3153 0.353818 0.0387991 0.933627
8.54008 51.5779 84.7081 0.398459 0.0378612 0.916325
9.64921 51.5771 84.1308 0.482422 0.0167715 0.875778
10.6936 51.5002 83.5555 0.524614 0.0256467 0.849165
11.7448 51.1853 82.8268 0.57512 0.00221913 0.818061
12.4401 50.663 82.33 0.584998 -0.00406467 0.811024
13.1575 50.0129 81.8045 0.602446 -0.00920613 0.79798
14.2728 49.2147 80.933 0.627263 -0.00456064 0.77856
15.0098 48.428 80.3036 0.655903 -0.000229325 0.754501
15.9773 47.4214 79.4175 0.684404 0.00103055 0.729102
16.5919 46.7632 78.8413 0.68953 -0.00118087 0.72422
17.1727 45.754 78.2802 0.693397 0.0020344 0.720553
17.7527 44.7553 77.7125 0.714765 -0.00433687 0.699326
18.2609 43.769 77.2077 0.706488 0.0162303 0.707512
18.6058 42.1685 76.8337 0.755026 0.000820879 0.655684
18.6363 41.1579 76.7858 0.760317 -0.00918735 0.649487
18.6162 40.1053 76.7958 0.748244 0.0155372 0.66318
18.4122 38.8816 77.0519 0.751516 0.0126107 0.659586
18.0904 37.8057 77.4641 0.72556 0.0395007 0.685979
17.4846 36.7394 78.0468 0.648071 0.0169473 0.76137
16.8552 36.1427 78.5889 0.641812 0.00776696 0.766821
15.7143 35.5974 79.5148 0.622103 -0.0106471 0.782863
14.8749 35.3836 80.1641 0.571481 -0.063445 0.817672
14.0226 35.2204 80.7131 0.550166 -0.0649965 0.832508
12.657 35.3638 81.6219 0.540906 -0.0727559 0.837922
11.7155 35.6374 82.2516 0.51035 -0.0787758 0.855703
10.154 35.7048 83.119 0.466395 -0.0927065 0.879566
8.6164 35.6562 83.8677 0.392917 -0.138035 0.908613
6.92551 35.1386 84.4416 0.35347 -0.14933 0.923449
5.91122 34.9469 84.6933 0.256349 -0.164909 0.952405
4.85156 35.0682 84.9961 0.242158 -0.175238 0.954182
3.73146 35.1975 85.238 0.180782 -0.154361 0.971334
2.65718 35.2582 85.4453 0.166825 -0.14613 0.974999
1.58131 35.181 85.5218 0.0808469 -0.194441 0.977577
0.453942 34.9912 85.5724 0.0615028 -0.192534 0.979186
-0.613 34.9443 85.5095 -0.0567715 -0.195427 0.979066
-1.8373 34.8402 85.4149 -0.0542273 -0.195106 0.979282
-3.28675 34.5645 85.276 -0.0849453 -0.160527 0.982357
-4.9129 34.5756 84.925 -0.212237 -0.157142 0.9645
-6.08393 34.6786 84.5871 -0.308016 -0.156318 0.93845
-7.29813 34.6128 84.1473 -0.384825 -0.154009 0.909886
-8.5639 34.552 83.5848 -0.394708 -0.168949 0.903139
-9.60547 34.4474 83.0713 -0.423369 -0.152216 0.893011
-10.6593 34.4737 82.5866 -0.419727 -0.14779 0.895525
-11.7521 34.7293 81.982 -0.502347 -0.107872 0.85791
-12.8022 34.913 81.3381 -0.556045 -0.0834014 0.826955
-13.9923 34.2487 80.442 -0.578001 -0.0897953 0.811079
-14.6365 33.2633 79.8878 -0.575143 -0.0353881 0.817286
-15.0581 32.283 79.5462 -0.575483 -0.0376735 0.816945
-15.3407 31.1687 79.2932 -0.569161 -0.055238 0.820368
-15.5864 30.1757 79.057 -0.567058 -0.052514 0.821998
-15.8659 29.1276 78.7985 -0.56368 -0.0532765 0.824271
-16.2414 27.7246 78.4594 -0.567267 -0.0492552 0.82203
-16.7117 26.5485 78.0791 -0.559924 -0.0429682 0.827425
-17.1736 25.1386 77.6651 -0.565335 -0.0664759 0.822178
-17.6003 24.1222 77.2973 -0.562933 -0.0383734 0.825611
-18.4153 22.8692 76.6773 -0.569509 -0.040923 0.820965
-19.3381 21.9834 75.9908 -0.580912 -0.039804 0.812992
-20.0652 21.209 75.4243 -0.587998 -0.0368827 0.808001
-20.6081 20.4462 74.9713 -0.619501 -0.0297522 0.784426
-20.9743 19.0799 74.6305 -0.619657 -0.0250947 0.78444
-20.299 17.363 75.0773 -0.589458 -0.0383505 0.806888
-19.643 15.9318 75.4923 -0.590765 -0.0354755 0.806064
-19.1555 14.8454 75.8008 -0.581052 -0.025529 0.813463
-18.7817 13.5485 76.031 -0.57815 -0.0222478 0.815622
-18.6925 12.4233 76.0393 -0.573657 -0.0435414 0.817937
-18.8799 11.3263 75.8754 -0.560489 -0.0235022 0.827828
-19.3506 10.175 75.5191 -0.56529 -0.0315202 0.82429
-20.0437 9.28168 74.9903 -0.61226 -0.0202432 0.790394
-21.1915 8.2502 74.0704 -0.611128 -0.0252304 0.791127
-21.9862 8.03583 73.4485 -0.614387 -0.0249725 0.788604
-22.821 8.11276 72.7617 -0.644023 -0.00305849 0.765
-23.7001 8.42073 72.0195 -0.645962 -0.00261349 0.763364
-24.6798 9.15889 71.2209 -0.643492 -0.0255877 0.764948
-25.3356 9.92933 70.6685 -0.661805 -0.0204588 0.749397
-25.8784 11.631 70.2356 -0.661941 -0.0273877 0.749026
-25.842 13.0333 70.3313 -0.653635 -0.0291406 0.756125
-25.4942 14.2146 70.6743 -0.645469 -0.0357168 0.762951
-25.0335 15.0953 71.1036 -0.653327 -0.0265454 0.756597
-24.0687 16.3641 71.9705 -0.647968 -0.0292228 0.761101
-23.4445 17.3528 72.5375 -0.637544 -0.0382973 0.769459
-22.8896 18.4655 73.05 -0.637726 -0.0362789 0.769408
-22.7407 19.5129 73.2141 -0.632351 -0.028108 0.774168
-23.1003 20.955 72.9695 -0.640152 -0.0250589 0.767782
-23.5642 22.0738 72.6044 -0.6482 -0.0183291 0.76125
-24.0722 22.9255 72.1917 -0.648296 -0.0181485 0.761172
-24.5286 23.8198 71.8212 -0.648471 -0.0149229 0.761093
-24.9329 24.9391 71.4984 -0.651922 -0.0134415 0.758153
-25.1642 26.0154 71.3155 -0.655229 -0.0116552 0.75534
-25.3438 27.0098 71.1744 -0.658103 -0.00860347 0.752866
-25.3689 28.2116 71.1573 -0.665991 -0.00253651 0.745953
-25.2026 29.9284 71.3123 -0.66552 -0.00432789 0.746367
-24.7575 31.2648 71.6677 -0.646536 0.0316316 0.762226
-24.3422 32.1444 71.9824 -0.639534 0.0350382 0.767915
-23.8687 33.0708 72.3339 -0.637259 0.0275423 0.770158
-23.0174 34.3009 72.9426 -0.637044 0.0508712 0.768978
-22.3939 34.9961 73.4019 -0.636804 0.0782108 0.767036
-21.409 36.0649 74.0661 -0.603876 0.110776 0.789343
-20.5332 36.5494 74.699 -0.660227 0.106553 0.742392
-19.3643 37.3889 75.705 -0.681679 0.0793914 0.727329
-18.523 38.0198 76.6719 -0.760792 -0.0330862 0.648148
-17.9228 38.524 77.4085 -0.725586 -0.0284549 0.685417
-17.3631 39.343 77.9457 -0.682465 0.00314836 0.730865
-17.0136 40.3048 78.254 -0.698981 0.00749822 0.714568
-16.7512 41.4962 78.5504 -0.701022 -0.0238975 0.712739
-16.6264 43.1038 78.7971 -0.705955 -0.0735146 0.704429
-16.298 44.5733 79.1396 -0.650455 -0.0241007 0.759085
-16.0061 45.6167 79.3991 -0.707255 0.0166765 0.70627
-15.6605 46.8147 79.7484 -0.701622 -0.00521177 0.71253
-15.0679 47.743 80.3262 -0.656843 -0.00578493 0.753956
-14.408 48.4227 80.9017 -0.652769 -0.0129942 0.75744
-13.3867 49.4506 81.829 -0.660971 -0.0223449 0.750078
-12.688 50.298 82.3363 -0.572787 -0.020455 0.819414
-11.8234 51.4041 82.9637 -0.577181 -0.0180695 0.816416
-10.9202 51.4774 83.5988 -0.54772 -0.0199406 0.83569
-10.9977 52.422 83.5626 -0.542428 -0.00663649 0.839307
-9.99997 52.3758 84.1383 -0.477314 -0.00128639 0.878578
-8.94828 52.3101 84.6901 -0.464442 0.00610458 0.885583
-7.74767 52.1796 85.2723 -0.417933 -0.0102435 0.908191
-6.53175 52.2743 85.7565 -0.326517 -0.00442075 0.943861
-4.87343 52.2763 86.2437 -0.274719 0.0137544 0.961426
-3.84373 52.3145 86.4468 -0.17537 0.0239885 0.983914
-2.69904 52.3179 86.6147 -0.0879229 0.0596986 0.994337
-1.69611 52.3481 86.7015 -0.0879199 0.0596958 0.994337
-0.498283 52.3579 86.7484 0.00837354 0.016978 0.999135
0.673303 52.3633 86.6998 0.0413791 0.0337691 0.998573
1.77673 52.3913 86.6238 0.120695 0.00892387 0.991807
3.2776 52.3547 86.3684 0.162085 0.00306274 0.986764
4.28282 52.2736 86.1376 0.235203 0.00986153 0.971896
5.81871 52.3104 85.7135 0.30137 0.0286151 0.953051
7.05878 52.5194 85.3072 0.350239 0.0224006 0.935352
8.07773 52.3866 84.8713 0.405543 0.0508425 0.912661
9.09358 52.3215 84.4235 0.444526 0.0297951 0.893978
10.0609 52.314 83.8893 0.49612 0.0253934 0.867597
11.0578 52.2301 83.3052 0.538486 0.0199293 0.841317
12.3481 51.7587 82.4014 0.584045 -0.00469932 0.811642
13.1342 51.0913 81.8273 0.590518 -0.00479053 0.807003
13.8704 50.3508 81.26 0.614366 -0.00532713 0.788913
14.6428 50.0719 80.6194 0.65942 0.00437544 0.751604
15.4488 48.8526 79.9 0.669719 0.0122792 0.742512
16.2039 48.2553 79.2023 0.68317 0.00472658 0.730243
17.1325 47.1356 78.3211 0.694371 -0.00338436 0.719609
17.8359 45.7533 77.6418 0.700403 0.00310505 0.713669
18.3502 45.074 77.1003 0.727096 -0.0024436 0.68652
18.7178 44.095 76.7233 0.732386 -0.0025423 0.680669
19.1 43.0287 76.258 0.769348 0.00417899 0.63881
19.1348 41.8832 76.2121 0.760319 -0.00877107 0.64949
19.1289 40.7841 76.208 0.757862 -0.00522932 0.652388
19.0653 39.6173 76.289 0.754486 0.0110425 0.656222
18.895 38.3317 76.5104 0.75122 0.0386153 0.658454
18.5724 37.3687 76.9689 0.748541 0.0648629 0.659907
17.9328 36.2188 77.6507 0.707525 0.0139881 0.706549
17.2403 35.5093 78.2705 0.653895 -0.00059784 0.756517
16.525 35.0596 78.8772 0.627798 0.0065231 0.778095
15.6899 34.7075 79.5036 0.580401 -0.0644427 0.811596
14.7734 34.6243 80.1761 0.571481 -0.063445 0.817672
13.9349 34.4501 80.7149 0.548576 -0.0604804 0.83391
12.6699 34.6317 81.5475 0.534471 -0.0558539 0.843081
11.8227 34.8695 82.113 0.519191 -0.0909251 0.849398
10.8546 34.9519 82.6601 0.478026 -0.0846068 0.874259
9.8683 34.954 83.1655 0.419919 -0.128851 0.898266
8.821 34.9182 83.6567 0.413801 -0.149352 0.897939
7.79743 34.6428 84.0273 0.35654 -0.152369 0.92177
6.66534 34.2615 84.3654 0.265491 -0.173701 0.948324
5.47137 34.2426 84.6848 0.250433 -0.180407 0.951171
4.29122 34.4535 85.0138 0.224288 -0.182192 0.957282
3.19275 34.5609 85.2362 0.179404 -0.154534 0.971562
2.17203 34.5463 85.3561 0.0973632 -0.19143 0.976452
1.15154 34.4034 85.4119 0.0767491 -0.180629 0.980549
0.160762 34.1766 85.404 -0.0597028 -0.191352 0.979695
-0.965333 34.0793 85.3142 -0.0605748 -0.196078 0.978716
-2.00876 33.9724 85.2324 -0.05252 -0.188642 0.980616
-3.18809 33.8148 85.1526 -0.117449 -0.177251 0.974224
-4.44019 33.8245 84.9031 -0.207185 -0.177065 0.962051
-5.98129 33.993 84.5063 -0.306513 -0.156462 0.938919
-7.01963 33.7434 84.1306 -0.355817 -0.139521 0.922447
-7.94656 33.8716 83.732 -0.407 -0.133587 0.903607
-8.92375 33.7927 83.284 -0.412931 -0.164766 0.895522
-10.0789 33.6933 82.7298 -0.417495 -0.124866 0.89983
-11.0203 33.7388 82.286 -0.501725 -0.107273 0.85835
-12.4 34.1513 81.5312 -0.501623 -0.107242 0.858413
-13.5039 33.7619 80.7354 -0.577717 -0.0914654 0.811096
-13.9865 32.9138 80.3196 -0.570845 -0.0506792 0.819345
-14.5748 31.6197 79.8542 -0.557058 -0.0634411 0.827761
-14.7715 30.5051 79.6336 -0.538006 -0.0709155 0.839952
-15.0915 29.4559 79.348 -0.547854 -0.0527478 0.834865
-15.4198 28.4577 79.0599 -0.5536 -0.0577621 0.830777
-15.8668 26.9543 78.6679 -0.54751 -0.0487071 0.83534
-16.198 25.9019 78.3883 -0.550072 -0.0462441 0.833831
-16.5787 24.953 78.0593 -0.565396 -0.0661384 0.822164
-17.2745 23.3223 77.4808 -0.554171 -0.0447212 0.8312
-17.7844 22.5473 77.0982 -0.555007 -0.0430021 0.830731
-18.398 21.8792 76.6463 -0.567785 -0.035827 0.822395
-19.1738 21.0252 76.0623 -0.580559 -0.0375937 0.813349
-19.8288 20.2666 75.557 -0.59751 -0.0403718 0.800844
-20.1821 19.3168 75.2507 -0.593189 -0.0326559 0.804399
-19.959 18.091 75.3602 -0.588996 -0.0379874 0.807243
-19.3885 17.069 75.7278 -0.589203 -0.0362733 0.807168
-18.9741 16.1656 75.9914 -0.587762 -0.0409963 0.807971
-18.6098 15.1758 76.2029 -0.572019 -0.0288883 0.819636
-18.2238 13.8733 76.433 -0.572009 -0.0174272 0.820032
-17.9899 12.768 76.5456 -0.552354 -0.0422346 0.832533
-18.1906 11.7081 76.353 -0.567027 -0.0336428 0.822909
-18.4098 10.5407 76.1714 -0.560769 -0.0237509 0.827632
-19.0107 9.40791 75.7238 -0.56871 -0.0238453 0.822166
-19.6832 8.46681 75.2485 -0.588831 -0.00910281 0.807391
-20.4197 8.00555 74.6592 -0.613597 -0.0227116 0.789286
-21.1939 7.29648 74.0402 -0.611406 -0.0159593 0.791118
-22.4469 7.19765 73.0665 -0.625703 -0.0106155 0.779869
-23.3036 7.51431 72.3529 -0.64338 -0.00683527 0.765515
-24.2352 7.95235 71.5673 -0.645181 -0.00539127 0.764005
-25.1818 8.6696 70.7721 -0.656775 -0.0221685 0.753711
-26.015 9.74558 70.0631 -0.662134 -0.0196479 0.749127
-26.3115 10.6836 69.8272 -0.661479 -0.020744 0.749677
-26.4444 11.721 69.7388 -0.661849 -0.026914 0.749129
-26.4825 12.7205 69.7468 -0.674584 -0.0246906 0.737782
-26.1145 14.2325 70.1349 -0.666483 -0.0249034 0.744994
-25.7434 15.244 70.4897 -0.658991 -0.0246316 0.751743
-25.1729 16.0979 71.017 -0.65654 -0.0278002 0.753777
-24.4777 16.8143 71.6401 -0.648111 -0.0271414 0.761058
-24.0028 17.7869 72.0834 -0.6509 -0.0297035 0.758582
-23.3948 18.8791 72.6508 -0.64487 -0.0338688 0.763481
-23.5815 20.2141 72.5384 -0.647569 -0.0230096 0.76166
-23.8323 21.2168 72.3555 -0.64797 -0.0205358 0.761385
-24.2891 22.0806 71.9868 -0.648296 -0.0181485 0.761172
-24.8741 22.9587 71.51 -0.648303 -0.0165543 0.761201
-25.2477 24.002 71.2102 -0.655246 -0.0120746 0.755319
-25.6194 25.4255 70.9115 -0.654918 -0.0125493 0.755595
-25.9508 27.1538 70.6418 -0.659605 -0.00292407 0.751597
-25.8958 28.6897 70.6872 -0.665149 0.000466563 0.746708
-25.8525 29.8347 70.734 -0.658013 -0.00988479 0.752941
-25.5695 31.1108 70.9867 -0.650373 0.0209308 0.759236
-25.1104 32.0753 71.3404 -0.639889 0.023136 0.768108
-24.5841 33.0075 71.7453 -0.633629 0.0262959 0.773177
-24.0842 33.9042 72.1133 -0.623513 0.0501791 0.780201
-23.5443 34.6855 72.4942 -0.624779 0.0511962 0.77912
-22.7922 35.4988 73.0217 -0.612743 0.0662248 0.787501
-22.1577 36.3581 73.4576 -0.609148 0.0921624 0.787415
-21.1998 37.0439 74.0892 -0.603769 0.109922 0.789544
-20.3591 37.625 74.7075 -0.701442 0.109886 0.703735
-19.6615 38.1398 75.3874 -0.722761 -0.0225799 0.690729
-18.6331 38.7446 76.5776 -0.765939 -0.0323837 0.642097
-17.904 39.6492 77.4125 -0.701123 0.0277465 0.712466
-17.3482 41.0563 77.9483 -0.703801 -0.0204609 0.710083
-17.1971 42.1851 78.1349 -0.70098 -0.0239439 0.712779
-17.1734 43.3444 78.2725 -0.705192 -0.0609786 0.706288
-16.987 44.4429 78.4902 -0.732381 0.0260411 0.679173
-16.5838 45.5843 78.8256 -0.705128 0.0429037 0.707781
-16.4141 46.7478 79.0046 -0.706401 -0.00857468 0.707732
-15.9983 47.6776 79.4304 -0.700177 -0.0292188 0.713367
-15.3555 48.4544 80.0737 -0.662736 -0.00192422 0.74885
-14.5283 49.1573 80.8131 -0.659561 -0.0109976 0.751508
-13.915 49.8708 81.3753 -0.660731 -0.0215826 0.750313
-13.3001 50.6074 81.9043 -0.626218 0.00616371 0.779116
-12.6088 51.8952 82.4165 -0.584497 -9.987e-06 0.811393
-11.5563 52.3067 83.1711 -0.58392 -0.00290654 0.811799
-11.545 52.3067 83.1793 -0.578522 -0.0115073 0.815511
-1.35032 43.4273 86.4646 -0.0606761 -0.0710833 0.995611
-0.944751 42.9667 86.4571 -0.0577079 -0.0679802 0.996016
-0.127527 43.648 86.5602 -0.0640255 -0.0764412 0.995016
-0.960409 43.4354 86.49 -0.0639411 -0.075399 0.995101
-0.0207516 43.6529 86.5619 0.0330567 -0.0595092 0.99768
1.01632 43.5195 86.5193 0.044285 -0.0657718 0.996783
2.04819 43.4018 86.4313 0.165377 -0.00890773 0.98619
3.10194 43.3475 86.254 0.186772 -0.0221302 0.981805
4.17705 43.3415 86.0231 0.209054 -0.0344915 0.977296
5.232 43.4735 85.8019 0.257075 -0.0479177 0.963829
5.2943 43.3032 85.7708 0.30544 -0.0618567 0.9502
4.20635 43.112 86.0086 0.209795 -0.0347413 0.977128
3.11329 43.0545 86.2414 0.209809 -0.0341284 0.977147
2.04469 43.0544 86.429 0.110344 -0.0421958 0.990811
0.982028 43.1419 86.4929 0.0526163 -0.0766368 0.995669
0.708314 43.1477 86.5076 0.0425032 -0.0681937 0.996683
7.81055 43.3243 84.879 0.38271 -0.0517399 0.9224
7.83506 43.3278 84.869 0.384186 -0.0571479 0.921485
-16.6582 36.098 78.4695 -0.646179 -0.0131513 0.762122
-17.7611 35.0262 77.4727 -0.670812 0.00446795 0.741614
-18.4764 34.6382 76.8678 -0.652194 0.0267511 0.75758
-19.6383 33.8577 75.8406 -0.682687 0.0837411 0.725895
-20.363 33.2974 75.2083 -0.665045 0.0426543 0.745284
-21.3534 32.2884 74.4755 -0.622753 0.0579483 0.780269
-22.2019 31.1557 73.8286 -0.644863 0.0366258 0.763404
-22.6745 30.3207 73.4597 -0.643751 0.0195537 0.764984
-22.9805 29.2632 73.2257 -0.646856 0.0152332 0.76246
-23.0958 28.1186 73.1328 -0.632334 -0.00570874 0.77466
-23.0463 27.0889 73.1557 -0.634052 -0.0156941 0.773131
-22.8017 25.9516 73.3401 -0.63935 -0.0204842 0.76857
-22.1515 24.4427 73.8517 -0.638987 -0.0115692 0.769047
-21.5239 23.7841 74.3486 -0.630452 -0.0160061 0.776063
-20.6211 24.5032 75.0886 -0.625532 -0.0103707 0.780129
-19.7154 25.6575 75.8239 -0.618387 -0.00936922 0.785818
-19.1696 26.8367 76.2718 -0.621529 -0.0206451 0.78311
-18.7265 28.0378 76.6584 -0.624369 -0.0207354 0.780854
-18.4135 28.9869 76.9224 -0.625263 -0.00999438 0.78035
-17.9301 30.4625 77.3175 -0.62154 -0.00750344 0.783333
-17.6727 31.4579 77.533 -0.625443 -0.00672687 0.78024
-17.4418 32.5165 77.7282 -0.626257 -0.0189839 0.779323
-16.9748 33.9872 78.1551 -0.621855 -0.0238989 0.782751
-16.7207 34.9408 78.3812 -0.619521 -0.0226163 0.784654
-16.5664 35.3042 78.5141 -0.619622 -0.0254752 0.784484
-17.8972 34.0873 77.3863 -0.650989 0.00447935 0.758739
-18.5679 33.5405 76.8039 -0.637912 -0.0039442 0.76989
-19.3321 33.2505 76.1564 -0.675756 0.027076 0.736628
-20.1826 32.5548 75.422 -0.654278 0.059855 0.75388
-21.0769 31.662 74.7423 -0.630941 0.0471363 0.774275
-21.9569 30.4007 74.0474 -0.63392 0.00946742 0.773308
-22.4105 29.188 73.6933 -0.630787 0.0009897 0.775938
-22.5312 27.6279 73.5871 -0.630207 -0.00972292 0.776341
-22.3076 26.3424 73.7519 -0.635283 -0.0103348 0.77221
-21.9505 25.4049 74.0335 -0.63877 -0.0191452 0.769093
-20.9122 25.1538 74.8639 -0.62603 -0.0134701 0.779682
-20.2927 25.9494 75.3731 -0.618472 -0.00950208 0.785749
-19.5852 27.3934 75.9572 -0.619955 -0.0180415 0.78443
-18.9665 29.1635 76.4815 -0.624509 -0.0100595 0.780952
-18.6192 30.1147 76.7662 -0.62839 -0.00084191 0.777897
-18.2424 31.5071 77.0762 -0.626332 -0.00581619 0.779534
-17.9899 32.8978 77.2795 -0.638233 -0.00475153 0.769588
-17.9701 33.9744 77.3216 -0.648188 -0.0174244 0.761281
-18.7029 32.197 76.7117 -0.627557 0.00177218 0.778526
-19.0415 30.6401 76.4279 -0.625983 -0.00585013 0.779814
-19.5268 29.1863 76.0291 -0.629276 -0.00493555 0.777166
-20.1124 27.6658 75.5445 -0.62834 -0.00712911 0.777907
-20.5083 26.7638 75.2131 -0.619289 -0.0137498 0.78503
-21.1472 26.0856 74.6913 -0.625959 -0.013146 0.779745
-21.8303 26.7888 74.1464 -0.629485 -0.00819535 0.776969
-21.9563 27.8892 74.0554 -0.63028 -0.00624139 0.776341
-21.8545 29.1096 74.1452 -0.630242 0.00130033 0.776379
-21.4393 30.0646 74.4768 -0.634617 0.00299947 0.772821
-20.845 30.9423 74.9571 -0.632564 0.00700538 0.774476
-20.1181 31.7294 75.5454 -0.654264 0.0619837 0.753722
-19.1773 32.5335 76.3236 -0.65228 0.017276 0.757121
-19.6141 30.9557 75.9682 -0.633934 -0.00195927 0.773381
-20.4992 30.4553 75.2442 -0.631789 0.00410555 0.775123
-21.0377 29.5719 74.8077 -0.632637 0.0015343 0.774443
-21.354 28.6909 74.5497 -0.629687 -0.00513333 0.77683
-21.2785 27.3869 74.5994 -0.629045 -0.00742031 0.777334
-20.5098 28.272 75.2291 -0.628653 -0.00669675 0.777657
-20.2751 28.8571 75.4231 -0.628132 -0.00471706 0.778092
-19.8537 29.893 75.7694 -0.62917 -0.0019051 0.777258
-19.947 30.4104 75.6929 -0.631823 -0.00149782 0.775105
-21.5429 17.2051 74.0996 -0.627867 -0.0348961 0.777512
-21.0646 16.162 74.4411 -0.635997 -0.036611 0.77081
-20.4913 14.9216 74.8235 -0.592383 -0.0374566 0.804785
-20.0558 13.7169 75.1087 -0.597128 -0.019844 0.801901
-19.957 12.2908 75.1392 -0.610656 -0.0168876 0.791716
-20.3871 11.0258 74.7744 -0.615127 -0.0243153 0.788052
-21.0487 10.126 74.2342 -0.611897 -0.0208942 0.790656
-21.8091 9.63155 73.6292 -0.631425 -0.0191332 0.774994
-22.5888 9.56905 72.9707 -0.644051 -0.0271249 0.764501
-23.4871 9.9488 72.2381 -0.636113 -0.0362731 0.770742
-24.2454 10.6533 71.6425 -0.647933 -0.0284306 0.761016
-24.7189 12.3233 71.262 -0.657831 -0.0106031 0.753091
-24.5253 13.3239 71.4519 -0.643591 -0.0347446 0.764577
-24.0552 14.3241 71.8902 -0.642306 -0.0348565 0.765655
-23.5461 15.0632 72.3462 -0.634948 -0.0337766 0.771814
-22.8352 15.9988 72.9713 -0.636032 -0.0387317 0.770687
-22.3424 16.8208 73.4222 -0.636462 -0.0392131 0.770311
-21.8587 17.2167 73.8419 -0.634531 -0.0365974 0.772022
-21.6538 16.0469 73.9502 -0.635471 -0.0405941 0.771057
-22.3558 15.4434 73.3406 -0.635435 -0.0285054 0.771603
-22.9814 14.7935 72.8019 -0.638867 -0.0228604 0.768976
-23.5476 14.0113 72.305 -0.644116 -0.0231115 0.764577
-23.9791 13.069 71.9077 -0.648687 -0.0156351 0.760822
-23.8939 11.2977 71.9656 -0.640411 -0.0145703 0.767806
-22.8956 10.433 72.7474 -0.635263 -0.0358549 0.771463
-22.1015 10.3441 73.4087 -0.632069 -0.0197534 0.774469
-21.0855 11.0674 74.2306 -0.619078 -0.0201994 0.785042
-20.669 11.8987 74.5811 -0.613676 -0.020674 0.789273
-20.6048 13.485 74.6852 -0.606161 -0.0336724 0.794629
-20.9364 14.4787 74.4749 -0.615193 -0.0357582 0.787042
-21.5383 15.7943 74.0337 -0.637451 -0.0331597 0.769777
-21.6025 15.9322 73.9864 -0.635997 -0.036611 0.77081
-21.6795 14.71 73.872 -0.63277 -0.0231136 0.773995
-22.4381 14.5231 73.2452 -0.638867 -0.0228604 0.768976
-22.9902 13.7965 72.7667 -0.636788 -0.0188252 0.770799
-23.3924 12.9362 72.4047 -0.647375 -0.0124622 0.762037
-23.3174 11.7751 72.4516 -0.633583 -0.0221479 0.773358
-22.3708 11.0892 73.208 -0.630409 -0.0200173 0.775989
-21.5403 11.5037 73.8822 -0.621709 -0.0253496 0.782838
-21.1728 12.39 74.2033 -0.618525 -0.0315948 0.784987
-21.2167 13.5312 74.2092 -0.630148 -0.0295555 0.775912
-21.377 14.0913 74.1006 -0.631472 -0.0266108 0.774933
-22.0311 13.6901 73.5548 -0.630856 -0.0253752 0.775474
-22.7443 12.9486 72.9528 -0.631955 -0.0204191 0.774702
-22.5605 11.9091 73.0747 -0.626737 -0.017974 0.779023
-21.6856 12.4503 73.7911 -0.627362 -0.0219961 0.778406
-21.7631 13.1997 73.7536 -0.628698 -0.0273935 0.777165
-21.6706 4.85996 73.6566 -0.622363 -0.0107982 0.782568
-20.7461 4.84463 74.3758 -0.609082 -0.010989 0.792991
-19.9488 4.6782 74.9771 -0.598673 -0.0133547 0.800847
-19.1386 4.44687 75.5716 -0.592223 -0.00955305 0.805716
-17.9222 3.5875 76.4149 -0.572032 -0.0170382 0.820046
-17.0722 3.09763 76.9395 -0.526234 -0.0109371 0.850269
-16.4811 2.16753 77.2958 -0.522719 0.00418346 0.852495
-15.8943 1.02792 77.6622 -0.52254 0.00534251 0.852598
-15.5889 -0.0937977 77.859 -0.523265 0.00742979 0.852138
-15.2187 -1.05508 78.0855 -0.487678 0.00413375 0.873007
-15.2323 -2.08992 78.0823 -0.498522 0.00513147 0.866819
-15.352 -3.17203 78.013 -0.502895 0.0154041 0.864147
-15.767 -4.43773 77.8102 -0.50694 0.031031 0.861413
-16.1711 -5.81543 77.6009 -0.514678 0.0155015 0.857238
-16.8747 -6.83912 77.168 -0.57023 0.0221157 0.821103
-17.9597 -7.77632 76.4235 -0.582917 0.0248307 0.812137
-18.7634 -8.21726 75.867 -0.583831 0.0352598 0.811094
-19.8598 -8.46458 75.0766 -0.591205 0.0351187 0.805728
-20.6351 -8.67688 74.4787 -0.620453 0.0100669 0.784167
-21.4229 -8.17881 73.8606 -0.613896 -0.00580821 0.789351
-22.2578 -7.95191 73.1824 -0.635523 -0.00515936 0.772052
-23.0958 -7.24041 72.4529 -0.646774 0.0209622 0.762385
-23.5882 -6.37677 72.0164 -0.640771 0.00939555 0.76758
-24.2446 -5.74135 71.464 -0.648166 0.000653582 0.761485
-24.7241 -4.88537 71.0501 -0.658991 0.00652594 0.752037
-25.0374 -3.92292 70.759 -0.664824 0.000913045 0.746955
-25.266 -2.52191 70.5693 -0.660879 -0.00351256 0.750452
-25.3467 -1.45904 70.4993 -0.678701 0.000704782 0.734414
-25.2106 -0.369163 70.622 -0.678166 0.00506772 0.734887
-24.9947 0.733365 70.8102 -0.678394 0.00778242 0.734657
-24.4438 1.9225 71.3048 -0.665116 0.00295698 0.746469
-23.8401 2.72792 71.8212 -0.64713 -0.00213127 0.762369
-23.241 3.62686 72.3355 -0.650134 -0.0114336 0.759698
-22.5969 4.33767 72.8926 -0.632917 -0.0175063 0.774018
-21.7616 4.79238 73.5814 -0.630799 -0.0154043 0.775793
-21.4028 4.10322 73.8592 -0.622363 -0.0107982 0.782568
-20.489 4.03094 74.5545 -0.604144 -0.0159219 0.796716
