-15.6735 38.0553 80.7262 -0.635095 -0.0618156 0.769811
-15.357 39.2091 81.0648 -0.641225 -0.0494377 0.765759
-15.1867 40.2491 81.2973 -0.663901 -0.0273443 0.746059
-15.0365 41.2392 81.417 -0.675517 0.0121118 0.737244
-14.8384 42.6515 81.6399 -0.693638 -0.0338844 0.719526
-14.6496 43.694 81.8709 -0.68589 -0.02425 0.727156
-14.3082 44.7011 82.2084 -0.660774 -0.0186598 0.750347
-13.8881 45.5852 82.5978 -0.640061 -0.01542 0.767724
-13.1445 46.5591 83.2209 -0.625961 -0.0210055 0.779471
-12.0706 47.6655 84.0402 -0.561934 -0.0223742 0.826806
-10.8206 48.4238 84.8885 -0.520055 -0.0201976 0.852867
-9.19969 48.4834 85.7768 -0.476916 -0.0216645 0.878682
-7.61123 48.5092 86.5536 -0.420995 -0.041605 0.905701
-6.6078 48.5177 86.9122 -0.324188 -0.0324769 0.945435
-5.00129 48.574 87.4175 -0.250433 -0.0434805 0.966697
-4.01837 48.6126 87.6466 -0.199307 -0.0112566 0.979506
-2.8277 48.5997 87.8199 -0.115313 -0.0263775 0.992979
-1.68772 48.5754 87.9496 -0.116188 -0.0186418 0.99301
-0.448275 48.5615 87.9901 -0.0215334 0.00595729 0.999597
0.634263 48.5469 87.9598 0.0498576 0.0105501 0.998568
1.92156 48.5635 87.8462 0.136424 0.00366936 0.99062
3.6022 48.5096 87.559 0.213745 -0.00690537 0.97664
4.71551 48.4615 87.2856 0.264392 -0.0192786 0.96421
5.76437 48.4546 86.9945 0.267255 -0.0149288 0.96351
7.30704 48.5377 86.4655 0.381796 -0.00577137 0.9242
8.25299 48.5384 86.065 0.414349 -0.004315 0.909741
9.58554 48.542 85.4216 0.431121 -0.00149453 0.902216
10.8172 48.5152 84.6738 0.541536 -0.00920903 0.840624
11.7514 48.3295 84.0675 0.560339 9.75412e-05 0.827962
12.6008 47.7524 83.4714 0.572528 -0.0074444 0.819851
13.8002 46.5881 82.6331 0.611284 0.0180105 0.789183
14.7308 45.7141 81.8269 0.68006 -0.0051266 0.733138
15.6884 44.7287 80.9458 0.68136 0.0143806 0.731799
16.5136 43.5403 80.1749 0.695991 -7.67095e-05 0.71805
16.8478 42.6145 79.852 0.695832 0.000820872 0.718204
17.0443 41.5431 79.6934 0.68423 0.0322233 0.728554
16.9738 39.9121 79.8298 0.663029 0.0175287 0.747697
16.5102 39.0583 80.1979 0.654081 -0.0173472 0.756097
15.6372 38.5215 80.9117 0.626815 -0.0265482 0.778675
14.7786 38.3983 81.5926 0.609048 -0.0280877 0.7924
13.4596 38.4864 82.5724 0.578213 -0.0441096 0.814126
12.2849 38.5327 83.3532 0.550073 -0.060407 0.832929
11.2724 38.5082 83.9823 0.503249 -0.0598695 0.861831
10.3153 38.4366 84.5066 0.453492 -0.0582917 0.889351
9.34264 38.3385 84.996 0.440697 -0.0720182 0.894542
8.40708 38.1929 85.4204 0.417778 -0.0779536 0.905196
6.65333 37.9137 86.1007 0.31366 -0.109116 0.943101
5.63915 37.8117 86.3904 0.264601 -0.130698 0.955357
4.05605 37.7261 86.7938 0.247431 -0.128996 0.960271
3.07624 37.605 87.0258 0.243559 -0.130775 0.961029
1.99439 37.4594 87.2499 0.0443227 -0.241353 0.967921
0.682553 37.3477 87.2262 -0.00170012 -0.212404 0.97718
-0.500981 37.2771 87.2065 -0.0293129 -0.210136 0.976938
-1.9329 37.2617 87.1244 -0.0707215 -0.16954 0.982209
-3.52099 37.2979 86.8758 -0.19993 -0.131672 0.970922
-4.57778 37.4183 86.6598 -0.244085 -0.146935 0.958518
-5.68842 37.5467 86.3772 -0.27097 -0.14219 0.952028
-6.89801 37.6171 86.0048 -0.313005 -0.144557 0.938675
-7.81327 37.5942 85.6862 -0.359972 -0.147343 0.920372
-7.61637 36.8511 85.6407 -0.35688 -0.16028 0.919432
-6.57827 36.8553 85.9932 -0.308697 -0.144137 0.940176
-5.33696 36.7182 86.354 -0.259628 -0.156108 0.952827
-4.28028 36.6227 86.6065 -0.225712 -0.153035 0.962014
-3.037 36.5175 86.8494 -0.174426 -0.19498 0.964361
-1.7052 36.5208 86.9817 -0.0571712 -0.207083 0.976649
-0.686763 36.5131 87.0365 -0.0299074 -0.210463 0.976843
0.551388 36.5825 87.0589 -0.00317118 -0.215834 0.976425
2.01806 36.7249 87.0388 0.0877045 -0.268566 0.959251
3.32953 36.8947 86.83 0.225535 -0.202585 0.952938
4.36693 37.02 86.6164 0.203237 -0.16067 0.965814
5.43436 37.0524 86.3472 0.250635 -0.11488 0.96124
6.99548 37.1591 85.8851 0.32845 -0.118148 0.937096
8.37194 37.4292 85.3716 0.422058 -0.0788104 0.903131
9.30766 37.5834 84.9442 0.425762 -0.0798478 0.901305
10.803 37.736 84.1813 0.486773 -0.0719174 0.870563
11.7196 37.7862 83.6658 0.498219 -0.116687 0.859163
12.9 37.7731 82.8903 0.551066 -0.0624454 0.832122
13.8812 37.6968 82.2227 0.561058 -0.0641885 0.825283
15.2892 37.6282 81.1513 0.623496 -0.0341811 0.781079
16.1195 37.8717 80.4972 0.634126 -0.025928 0.77266
17.2843 38.9715 79.5077 0.674712 -0.0327221 0.737328
17.6265 40.258 79.1679 0.712115 0.00250135 0.702058
17.6386 41.6758 79.1276 0.685398 0.0230176 0.727746
17.2799 43.2561 79.4326 0.689971 0.00802856 0.723709
16.7911 44.3958 79.9066 0.695974 -0.000548897 0.718067
16.1748 45.2195 80.4796 0.684104 0.0148777 0.729233
15.2677 46.1601 81.3328 0.68668 -0.00571486 0.726937
14.4481 46.8869 82.0592 0.653569 0.0347316 0.75607
13.6645 47.678 82.7095 0.634541 0.0106671 0.772524
12.4111 48.8845 83.595 0.577262 0.0090439 0.816508
11.5222 49.2512 84.2199 0.57677 0.00920934 0.816854
10.5674 49.2824 84.8431 0.541536 -0.00920903 0.840624
9.26432 49.2876 85.5826 0.444214 0.00385364 0.895913
8.31808 49.293 86.041 0.409517 -0.00799526 0.911902
7.05978 49.2568 86.5682 0.38452 0.00203346 0.923113
5.5886 49.2021 87.0469 0.263638 0.0104023 0.964563
4.07685 49.249 87.4426 0.236353 0.0113108 0.971562
2.66922 49.3222 87.7313 0.145316 0.00913614 0.989339
1.47356 49.3145 87.8961 0.0982822 0.0142221 0.994479
0.473119 49.2957 87.9584 0.0347073 0.0132833 0.999304
-0.803902 49.3 87.9792 -0.00506928 0.0176559 0.999829
-1.99134 49.3246 87.9259 -0.0691223 0.0326831 0.997071
-3.53631 49.3741 87.733 -0.163123 0.00603383 0.98632
-5.20035 49.3033 87.3803 -0.254307 -0.0187073 0.966751
-6.58752 49.2651 86.9445 -0.329215 -0.020302 0.943975
-7.54207 49.2679 86.6028 -0.386384 -0.0149186 0.920675
-8.65309 49.2658 86.0636 -0.439212 -0.0172433 0.898211
-9.73916 49.2677 85.5032 -0.479662 -0.0158351 0.877287
-10.7775 49.2374 84.9275 -0.519786 -0.0112346 0.853287
-12.0225 48.7193 84.0895 -0.55614 -0.0128231 0.830989
-12.8084 47.9397 83.5068 -0.616392 -0.0283356 0.786745
-13.6366 47.0452 82.8391 -0.625583 -0.0217521 0.779762
-14.5328 45.8041 82.04 -0.651203 -0.0315908 0.758245
-14.9373 44.8382 81.6546 -0.665196 -0.0281866 0.746078
-15.2846 43.4067 81.2526 -0.68057 -0.0382042 0.731679
-15.4694 42.2104 81.0169 -0.668538 -0.0289762 0.742893
-15.6336 41.0586 80.8746 -0.663479 0.0074602 0.748157
-15.8019 39.9841 80.7387 -0.673453 -0.0071057 0.738876
-16.0876 38.7835 80.4066 -0.678799 -0.0436241 0.733027
-16.5459 37.6869 79.9119 -0.681072 -0.0481482 0.730631
-17.2417 36.8663 79.2085 -0.700259 -0.0469768 0.711863
-17.9254 36.4571 78.5291 -0.701286 -0.00882854 0.712826
-18.8528 35.8319 77.6392 -0.716189 0.0506732 0.693653
-19.4781 35.2881 77.0155 -0.715116 0.123776 0.687953
-20.435 34.4795 76.2177 -0.688232 0.0987176 0.716948
-21.1047 33.9105 75.6661 -0.654932 0.0535092 0.753791
-22.0906 32.8439 74.9098 -0.636191 0.0641438 0.76886
-22.7028 31.9437 74.4554 -0.648039 0.0366794 0.760613
-23.1537 30.996 74.1004 -0.656774 0.0306839 0.753462
-23.5277 29.914 73.7974 -0.652688 0.0171151 0.757404
-23.7964 28.9064 73.5953 -0.647058 0.0101304 0.762309
-23.9728 27.3387 73.4465 -0.651294 -0.00384258 0.758775
-23.931 26.1346 73.4588 -0.660875 -0.017025 0.750303
-23.7466 25.0988 73.5961 -0.660401 -0.0217837 0.750597
-23.2636 23.8379 73.9845 -0.654635 -0.0234905 0.75554
-22.6966 22.6988 74.4232 -0.643431 -0.0235656 0.765083
-21.7858 22.1766 75.1747 -0.641866 -0.031606 0.766138
-21.123 23.1944 75.7642 -0.636184 -0.0313341 0.770901
-20.6156 23.9674 76.1944 -0.627276 -0.0133193 0.778683
-20.0456 24.9396 76.6577 -0.617632 -0.0196229 0.78617
-19.628 25.777 77.0173 -0.61774 -0.0255009 0.785966
-19.2763 26.7779 77.323 -0.604136 -0.0207941 0.796443
-18.8725 27.8385 77.6646 -0.619537 -0.0143681 0.784767
-18.5575 28.7812 77.931 -0.61445 -0.0249428 0.788498
-18.2364 29.8195 78.2081 -0.622015 -0.015456 0.782853
-17.9222 30.7443 78.4781 -0.627455 -0.0144056 0.778498
-17.5973 31.7174 78.7519 -0.631589 -0.0169458 0.775087
-17.0783 33.1722 79.2288 -0.635321 -0.031026 0.771625
-16.5882 34.3988 79.686 -0.615635 -0.0296615 0.787102
-16.1012 35.3148 80.1417 -0.612268 -0.0853813 0.786024
-15.4066 36.0346 80.7589 -0.610925 -0.0851354 0.787097
-14.5079 36.5541 81.5118 -0.611908 -0.0877744 0.786034
-13.7307 36.7901 82.1385 -0.587592 -0.104069 0.802433
-12.2229 36.9447 83.2253 -0.530711 -0.107881 0.839872
-10.9394 36.9137 83.9719 -0.511699 -0.133555 0.848536
-9.74894 36.8192 84.6288 -0.467487 -0.166608 0.868158
-8.4851 36.7978 85.2508 -0.400268 -0.164006 0.901592
-7.89985 36.8326 85.514 -0.395051 -0.164089 0.903882
-7.61452 36.1022 85.5041 -0.393218 -0.165412 0.904444
-8.64781 36.0331 85.0409 -0.399219 -0.161819 0.90245
-9.56308 36.0624 84.5836 -0.459582 -0.143816 0.876048
-10.5206 36.1461 84.1057 -0.470783 -0.119314 0.873865
-11.5103 36.2096 83.5393 -0.502891 -0.114313 0.856757
-12.4518 36.2067 82.9859 -0.530711 -0.107881 0.839872
-13.2584 36.1046 82.3957 -0.584123 -0.108556 0.804343
-14.0743 35.8657 81.7724 -0.600063 -0.0775558 0.796037
-15.2231 35.1935 80.8103 -0.610174 -0.0857277 0.787615
-15.8524 34.421 80.2385 -0.612268 -0.0853813 0.786024
-16.4485 33.0303 79.7415 -0.614864 -0.0318825 0.787551
-16.7936 32.0992 79.4212 -0.634532 -0.0262383 0.772444
-17.2577 30.8101 79.0143 -0.624968 -0.0178252 0.780433
-17.603 29.8765 78.7126 -0.623801 -0.0217272 0.781281
-17.9144 28.9484 78.4468 -0.621062 -0.0232392 0.783375
-18.2099 28.0154 78.1796 -0.608465 -0.0182539 0.793371
-18.6275 26.6157 77.8001 -0.61111 -0.0371535 0.790454
-19.0788 25.4368 77.4378 -0.604136 -0.0207941 0.796443
-19.5201 24.5629 77.0594 -0.614867 -0.0215045 0.788298
-20.4512 23.0356 76.3106 -0.619686 -0.0137735 0.784671
-21.1174 22.0458 75.7236 -0.636329 -0.0288447 0.770875
-21.7081 21.047 75.1976 -0.636025 -0.0274423 0.771178
-22.0103 19.6648 74.9032 -0.636526 -0.0235562 0.770889
-22.426 20.295 74.5834 -0.633016 -0.0257485 0.773711
-22.9539 21.8422 74.1914 -0.639431 -0.0159092 0.768684
-23.5289 23.0023 73.7339 -0.648617 -0.0127003 0.760984
-24.0509 24.0892 73.3022 -0.652546 -0.0134059 0.75763
-24.3812 25.1758 73.0398 -0.660647 -0.0196709 0.750436
-24.549 26.86 72.9385 -0.655769 -0.0201713 0.754692
-24.543 27.8764 72.9558 -0.656823 -0.00714785 0.754011
-24.2323 29.6117 73.2052 -0.648691 0.0200099 0.760788
-23.8904 30.7258 73.4664 -0.652688 0.0171151 0.757404
-23.4904 31.7982 73.7727 -0.66257 0.0388876 0.747989
-23.0137 32.67 74.1522 -0.664275 0.0508209 0.745652
-22.433 33.4908 74.5721 -0.637302 0.0639325 0.767957
-21.4857 34.4937 75.2938 -0.652751 0.0862691 0.751925
-20.7396 35.1013 75.8453 -0.650572 0.118252 0.750182
-19.871 35.7829 76.5146 -0.69566 0.108959 0.709178
-19.2743 36.3501 77.0969 -0.753677 0.0712376 0.653373
-18.6891 36.8287 77.7849 -0.742566 -0.00588764 0.666747
-17.9787 37.2866 78.4911 -0.70063 -0.0134453 0.713398
-17.255 37.9257 79.2654 -0.700259 -0.0469768 0.711863
-16.7532 38.6824 79.784 -0.680258 -0.0457409 0.731536
-16.4568 39.5884 80.1116 -0.681165 -0.0325942 0.731338
-16.2587 40.6955 80.3254 -0.66284 0.00884089 0.748709
-16.1379 41.7323 80.4206 -0.663479 0.0074602 0.748157
-15.9443 42.8777 80.6155 -0.668538 -0.0289762 0.742893
-15.7697 43.9776 80.8279 -0.686703 -0.0360832 0.726012
-15.546 44.9589 81.0953 -0.683767 -0.0426918 0.728449
-15.2157 45.8965 81.4559 -0.652158 -0.0322227 0.757398
-14.7487 46.7284 81.893 -0.650625 -0.0330606 0.758677
-14.2007 47.4626 82.3972 -0.640853 -0.033297 0.766825
-13.5647 48.1743 82.9314 -0.613952 -0.0446883 0.788077
-12.4916 49.3107 83.769 -0.580688 -0.00464204 0.814111
-11.4751 49.933 84.4715 -0.553995 -0.00973163 0.832463
-10.2407 50.0339 85.2353 -0.485502 -0.00810261 0.874194
-9.23523 50.0394 85.7917 -0.461583 -0.0134434 0.886615
-8.15616 50.0314 86.3177 -0.437071 -0.0128351 0.899334
-7.0002 50.0221 86.806 -0.337167 -0.0114544 0.941375
-5.89955 50.0274 87.1881 -0.274942 0.0176714 0.960194
-4.30142 50.0675 87.5811 -0.208132 0.0363244 0.976731
-2.74506 50.1032 87.8513 -0.115228 0.0211385 0.991479
-1.60864 50.0641 87.9272 -0.0701539 0.0342109 0.996949
-0.214576 50.0229 87.9678 0.0106163 0.0267577 0.999441
0.823929 50.0419 87.9286 0.0612919 0.0115095 0.998051
2.21871 50.0732 87.7821 0.132277 0.0197775 0.991015
3.31603 50.057 87.618 0.236054 0.0113249 0.971638
4.61979 49.976 87.2939 0.242892 0.0169985 0.969904
5.77774 49.9739 86.9867 0.274047 0.0218603 0.96132
6.75597 49.9897 86.6918 0.336194 0.0160682 0.940208
8.15836 50.0422 86.1083 0.389285 0.00972747 0.921027
9.22719 50.0053 85.598 0.444208 0.00373293 0.895916
10.2647 50.0099 85.0328 0.526769 -0.000124209 0.849986
11.1374 50.0229 84.4817 0.559664 0.000767936 0.828431
11.9744 50.0008 83.8952 0.570444 -0.020297 0.821085
12.8668 49.4999 83.267 0.57696 0.00809029 0.816732
13.5346 48.8162 82.775 0.623373 0.0255429 0.781508
14.1543 48.1256 82.2985 0.645597 -0.00514107 0.763661
15.1027 47.1978 81.4905 0.6597 0.000993136 0.751269
15.7394 46.6056 80.8907 0.685771 -0.00790595 0.727769
16.5628 45.8232 80.1124 0.684387 -0.000737738 0.729116
17.4196 44.6385 79.2965 0.697634 8.25791e-05 0.716455
17.8329 43.3901 78.884 0.706823 0.00841025 0.707079
18.1462 42.0286 78.6204 0.730326 0.0040797 0.682024
18.268 40.7922 78.5049 0.753958 0.0294411 0.656263
18.1501 39.7963 78.6379 0.71244 -6.60611e-05 0.701727
17.6508 38.3093 79.1373 0.694593 -0.0177434 0.718685
17.0895 37.5981 79.6375 0.663561 -0.00757902 0.748083
16.359 37.1246 80.277 0.640578 -0.0211194 0.767154
15.0493 36.8368 81.3087 0.622892 -0.0333184 0.781597
13.7125 36.9482 82.279 0.560009 -0.0576569 0.826445
12.3683 37.0535 83.1885 0.526444 -0.090484 0.844465
11.4346 37.0387 83.7295 0.498219 -0.116687 0.859163
10.3088 36.9513 84.3664 0.489241 -0.123226 0.863359
9.27947 36.8315 84.8821 0.431061 -0.10511 0.89618
8.15863 36.6287 85.3957 0.404081 -0.132614 0.90424
7.07927 36.3841 85.7574 0.329807 -0.119151 0.936495
5.35317 36.2833 86.2766 0.232182 -0.136141 0.962611
4.35981 36.2564 86.4908 0.203237 -0.16067 0.965814
3.03629 36.1167 86.7325 0.20861 -0.183525 0.960151
2.01306 35.9971 86.8388 0.0890855 -0.265078 0.960102
1.00396 35.8825 86.9042 0.074724 -0.202834 0.976181
-0.0748372 35.7893 86.8856 -0.0056087 -0.183565 0.982991
-1.45061 35.7808 86.8394 -0.0569159 -0.207467 0.976582
-2.45482 35.7661 86.7644 -0.145315 -0.220982 0.964391
-3.77219 35.7943 86.5722 -0.1726 -0.192623 0.965177
-4.93549 35.9246 86.3162 -0.244244 -0.170914 0.954533
-6.13486 36.0564 86.0096 -0.321067 -0.153651 0.934466
-7.37524 36.1124 85.6011 -0.317793 -0.157626 0.934958
-7.4726 36.1114 85.5676 -0.35688 -0.16028 0.919432
-7.36577 35.3728 85.4773 -0.353104 -0.163939 0.920197
-5.74211 35.238 86.0184 -0.326123 -0.147817 0.933698
-4.52313 35.1152 86.2965 -0.223123 -0.148947 0.963247
-3.30128 34.9929 86.4801 -0.120857 -0.144699 0.982067
-2.15606 34.9986 86.6336 -0.101263 -0.212437 0.970856
-0.514605 35.0302 86.7357 -0.0518907 -0.205403 0.977288
0.482819 35.0999 86.7597 -0.00426387 -0.183266 0.983054
1.64876 35.2239 86.7147 0.0890904 -0.192212 0.9773
3.31673 35.4235 86.5539 0.157266 -0.207455 0.96552
4.32591 35.4857 86.3702 0.203419 -0.159742 0.965932
5.86913 35.5367 86.0384 0.216496 -0.170023 0.961305
7.02136 35.5988 85.6558 0.348582 -0.164144 0.922793
8.4433 35.9015 85.1493 0.377364 -0.157702 0.912532
9.53108 36.1125 84.6761 0.457305 -0.117771 0.880917
10.811 36.2575 83.9822 0.490407 -0.123264 0.862696
11.8364 36.3184 83.3978 0.498148 -0.117937 0.859033
12.7309 36.3029 82.8848 0.512207 -0.0748951 0.855164
13.9043 36.1557 82.099 0.554928 -0.0550262 0.830076
14.8147 36.0695 81.4352 0.594263 -0.0627771 0.801816
15.8297 36.1408 80.6632 0.618153 -0.0268788 0.785588
17.1387 36.6735 79.5821 0.660489 -0.0152753 0.75068
17.7626 37.2802 79.0371 0.690618 -0.000837107 0.722216
18.2092 38.0561 78.5634 0.717255 0.00206017 0.69674
18.6108 39.3005 78.1648 0.744436 0.00805431 0.666061
18.7847 40.2888 77.9331 0.762989 0.0169412 0.645944
18.7733 41.4992 77.892 0.75283 0.00499984 0.657696
18.5567 42.7168 78.177 0.73163 0.00145458 0.680713
18.2181 44.1746 78.5122 0.705741 -0.01104 0.708384
17.888 45.126 78.8404 0.6977 0.000937491 0.716388
17.359 45.9898 79.3523 0.696938 0.00368721 0.71712
16.7646 46.5959 79.9256 0.690031 -0.00144417 0.723738
15.7089 47.5997 80.9335 0.686738 -0.00966734 0.726836
14.8253 48.3832 81.7315 0.659662 0.00261809 0.751327
14.1559 49.1232 82.2678 0.622969 0.0122134 0.781999
13.4224 49.9681 82.8418 0.616996 -0.00163087 0.786957
12.6553 50.6026 83.4255 0.591656 -0.00249568 0.806185
11.8058 50.7934 84.0317 0.57288 -0.013959 0.819496
10.8317 50.7519 84.6659 0.534138 0.0175877 0.845212
9.82863 50.7405 85.2707 0.485372 0.0242288 0.873683
8.69375 50.7877 85.858 0.456077 0.00978474 0.889865
7.44097 50.7712 86.4037 0.388947 0.00979418 0.921174
6.32023 50.7355 86.7982 0.28758 0.0322813 0.957213
5.17863 50.7232 87.1405 0.274047 0.0218603 0.96132
3.98755 50.757 87.4402 0.243638 0.0117488 0.969795
2.89996 50.8316 87.69 0.165187 0.0117328 0.985221
1.22187 50.7918 87.8969 0.10715 0.00735003 0.994057
0.192713 50.7434 87.9313 0.0271386 0.0359226 0.998981
-0.89966 50.7593 87.9535 -0.0366911 0.0253044 0.998401
-2.42975 50.8308 87.8608 -0.0612695 0.0182493 0.997941
-3.94416 50.8243 87.6199 -0.172571 0.0286795 0.984578
-5.02158 50.8037 87.3836 -0.230741 0.015897 0.972885
-6.02382 50.7837 87.1308 -0.318569 0.0202834 0.947682
-7.4463 50.7936 86.6511 -0.316416 0.0127424 0.948506
-8.41027 50.7946 86.2045 -0.437073 -0.0118335 0.899347
-9.36365 50.813 85.7329 -0.485395 -0.013133 0.874196
-10.7247 50.8064 84.9718 -0.494722 -0.00635641 0.868988
-11.5589 50.7369 84.4147 -0.56231 0.00349705 0.826918
-12.8745 49.9705 83.4973 -0.581668 0.000628798 0.813425
-13.7602 48.9957 82.8243 -0.638382 -0.0276486 0.768477
-14.5251 48.1549 82.1256 -0.666776 -0.017849 0.745043
-15.3994 46.9048 81.3138 -0.668262 -0.0142186 0.74379
-15.8133 46.0358 80.8555 -0.719825 -0.0232669 0.693551
-16.1237 45.0764 80.5266 -0.718066 -0.0063002 0.695947
-16.3374 44.0975 80.2971 -0.702624 -0.0245058 0.710589
-16.6827 42.4468 79.9607 -0.662577 -0.00593172 0.748862
-16.7588 41.4332 79.8735 -0.660079 -0.00336339 0.751079
-16.8711 40.3941 79.7469 -0.685399 -0.0238171 0.727778
-17.216 39.1703 79.3841 -0.682075 -0.032733 0.730466
-17.9375 38.2262 78.5777 -0.718052 -0.0460109 0.694466
-18.6395 37.7226 77.8498 -0.741747 -0.00867674 0.667827
-19.2288 37.3005 77.1057 -0.777792 -0.00471502 0.628454
-19.7935 36.7484 76.4584 -0.712697 0.083523 0.694155
-20.963 35.7842 75.5434 -0.654309 0.116692 0.747158
-22.1259 34.8392 74.7059 -0.632692 0.0831164 0.769607
-23.1814 33.5568 73.926 -0.649118 0.0730882 0.757168
-23.7202 32.6967 73.5212 -0.65113 0.0569202 0.756812
-24.1413 31.8459 73.1982 -0.639984 0.0411022 0.767287
-24.5594 30.6627 72.8966 -0.650039 0.0228794 0.759555
-24.8384 29.6661 72.6858 -0.649687 0.0206197 0.759922
-25.1126 28.0666 72.4546 -0.67069 0.00243467 0.741734
-25.1256 26.9316 72.4388 -0.656525 -0.0139686 0.754148
-25.06 25.7913 72.4649 -0.656453 -0.0209085 0.754077
-24.8071 24.3701 72.6557 -0.654529 -0.0125668 0.755927
-24.4202 23.3569 72.9712 -0.652242 -0.0107001 0.757931
-23.9227 22.4312 73.3888 -0.648617 -0.0127003 0.760984
-23.4847 21.5996 73.74 -0.645163 -0.0171921 0.763852
-22.9642 19.9643 74.1287 -0.642347 -0.0286766 0.765877
-23.0697 18.4315 73.9748 -0.644315 -0.0375353 0.763838
-23.3678 17.3703 73.6657 -0.64151 -0.041733 0.765977
-23.7858 16.4975 73.2663 -0.640267 -0.0359077 0.767274
-24.3347 15.5632 72.7733 -0.63977 -0.00504598 0.768547
-24.9839 14.3613 72.1804 -0.660087 -0.0308416 0.750555
-25.3964 13.1442 71.7756 -0.662471 -0.0133905 0.748964
-25.5107 11.6626 71.6488 -0.667109 -0.0206117 0.744617
-25.1981 10.731 71.9007 -0.664659 -0.0216036 0.746835
-24.3925 9.79052 72.5635 -0.643382 -0.0460753 0.764156
-23.4936 9.17007 73.2836 -0.643378 -0.00689631 0.765486
-22.2142 8.57807 74.3632 -0.645125 -0.000570514 0.764077
-21.5308 9.01975 74.9224 -0.619513 -0.0198545 0.784732
-20.5244 10.3961 75.7499 -0.621542 -0.0142382 0.783251
-19.9989 11.1738 76.1627 -0.610927 -0.00351949 0.791676
-19.7019 12.1635 76.4348 -0.597726 -0.0329855 0.800844
-19.7533 13.8789 76.45 -0.58659 -0.0260398 0.809466
-20.0763 14.9084 76.2325 -0.600661 -0.0425617 0.79837
-20.7951 16.5243 75.7599 -0.607389 -0.0304433 0.793821
-21.1909 17.6901 75.5119 -0.620812 -0.0395587 0.782623
-21.4591 18.7287 75.3317 -0.637399 -0.0297886 0.769957
-21.3859 19.8397 75.4248 -0.636698 -0.0190334 0.770875
-21.0818 20.7634 75.7061 -0.635399 -0.0275517 0.771687
-20.4367 21.9214 76.2781 -0.610166 -0.0304848 0.791103
-19.7272 22.897 76.8392 -0.592972 -0.0473254 0.80383
-19.0509 24.0682 77.4076 -0.582955 -0.0489871 0.810938
-18.588 24.9593 77.7779 -0.587023 -0.0278074 0.809093
-18.193 25.9915 78.105 -0.602077 -0.0500951 0.796865
-17.8591 27.1035 78.428 -0.605599 -0.0345684 0.794839
-17.5826 28.0903 78.6746 -0.619766 -0.0317391 0.784145
-17.2794 29.0428 78.95 -0.618583 -0.0229353 0.785359
-16.9302 29.9893 79.2529 -0.623801 -0.0217272 0.781281
-16.5579 30.9526 79.5712 -0.577469 -0.043885 0.815205
-16.1143 32.0638 79.9384 -0.579981 -0.0370451 0.813786
-15.7445 33.0282 80.2563 -0.585917 -0.0473776 0.808985
-15.2484 34.1128 80.6722 -0.602983 -0.0585218 0.795054
-14.5728 34.7307 81.2626 -0.609664 -0.0862124 0.787957
-13.6874 35.2051 81.9997 -0.600063 -0.0775558 0.796037
-12.8962 35.406 82.588 -0.583005 -0.0752773 0.80897
-11.9992 35.4793 83.1546 -0.504649 -0.115031 0.855625
-11.1031 35.4337 83.6734 -0.491141 -0.121551 0.862555
-10.2261 35.3744 84.155 -0.447698 -0.123202 0.885651
-8.84184 35.2594 84.8157 -0.404692 -0.163505 0.899653
-8.01198 35.3209 85.1885 -0.389824 -0.163986 0.906163
-7.98699 34.5698 85.0662 -0.392247 -0.161111 0.905632
-8.91332 34.5236 84.6491 -0.411005 -0.16063 0.897367
-9.87035 34.6127 84.2268 -0.428729 -0.142367 0.89175
-10.7628 34.6617 83.7579 -0.483478 -0.125659 0.866255
-12.0808 34.7056 83.0033 -0.504389 -0.114139 0.855897
-13.2769 34.5504 82.2266 -0.584981 -0.0937413 0.80556
-14.1466 34.1176 81.5254 -0.609981 -0.085083 0.787835
-15.0114 33.07 80.7897 -0.586149 -0.0491129 0.808714
-15.4242 31.9406 80.4242 -0.5826 -0.0427558 0.811611
-15.9259 30.7972 80.0074 -0.575443 -0.050234 0.816298
-16.465 29.5595 79.562 -0.569816 -0.0427129 0.820661
-16.9342 28.2085 79.1598 -0.56456 -0.0480472 0.823992
-17.1926 27.2654 78.9266 -0.565536 -0.0491938 0.823255
-17.4481 26.2491 78.6789 -0.57332 -0.0569852 0.817346
-17.722 25.294 78.4172 -0.594453 -0.0386754 0.80306
-18.3293 23.9967 77.9111 -0.575267 -0.0528078 0.816259
-18.897 22.9245 77.4469 -0.57301 -0.0479117 0.818146
-19.6579 21.838 76.8391 -0.584817 -0.0319935 0.810532
-20.2423 21.0065 76.3833 -0.586619 -0.0297624 0.809314
-20.6543 20.0981 76.0343 -0.634457 -0.0262665 0.772511
-20.7874 19.0664 75.8944 -0.595873 -0.0417059 0.801982
-20.5222 17.5828 76.0128 -0.601343 -0.0443327 0.797749
-20.128 16.4891 76.2691 -0.604164 -0.0322336 0.796193
-19.7103 15.6197 76.5441 -0.588865 -0.0333361 0.807544
-19.3035 14.6456 76.8008 -0.583607 -0.0239799 0.811671
-19.074 13.5747 76.9324 -0.586423 -0.0260434 0.809586
-19.0924 12.0934 76.8694 -0.581797 -0.0213395 0.813038
-19.6277 10.5306 76.4463 -0.610927 -0.00351949 0.791676
-20.4443 9.42888 75.7922 -0.61794 -0.018485 0.786006
-21.0849 8.49504 75.2614 -0.620516 -0.0212778 0.783905
-21.5776 7.60918 74.8524 -0.617969 -0.0185125 0.785984
-22.8246 8.03633 73.8469 -0.64578 -0.00320072 0.763516
-23.7758 8.51297 73.0405 -0.643378 -0.00689631 0.765486
-24.9362 9.35622 72.0889 -0.647754 -0.0181313 0.761515
-25.6191 10.1938 71.5015 -0.672394 -0.0255799 0.73975
-26.0075 11.0773 71.1771 -0.670259 -0.0288905 0.741565
-26.1661 12.1289 71.0745 -0.667426 -0.0201408 0.744349
-25.8255 13.9115 71.4221 -0.658693 -0.0306696 0.751786
-25.3702 14.997 71.8664 -0.657325 -0.0284061 0.75307
-24.7314 16.0854 72.4614 -0.645541 -0.0344672 0.762833
-24.0122 17.3451 73.1244 -0.639229 -0.0423577 0.767843
-23.6793 18.3842 73.4575 -0.650428 -0.0370615 0.758654
-23.6008 20.1177 73.6002 -0.645489 -0.0273156 0.763275
-23.89 21.0774 73.384 -0.646765 -0.0223317 0.762362
-24.682 22.5118 72.7367 -0.652123 -0.00949079 0.758053
-25.1343 23.4252 72.3577 -0.652242 -0.0107001 0.757931
-25.5002 24.6324 72.0573 -0.656053 -0.0103943 0.754643
-25.6627 25.8912 71.9429 -0.656203 -0.0205916 0.754304
-25.6845 26.9133 71.9426 -0.669058 -0.00368895 0.743164
-25.638 28.6823 71.9779 -0.669776 -0.000399031 0.742559
-25.3761 29.9386 72.218 -0.659629 0.00904298 0.751333
-25.1313 30.9105 72.3992 -0.650052 0.023733 0.759519
-24.6181 32.2577 72.7798 -0.639939 0.0397944 0.767395
-23.9863 33.4424 73.2361 -0.65113 0.0569202 0.756812
-23.4756 34.2689 73.6049 -0.651907 0.0713764 0.754921
-22.4694 35.4425 74.3551 -0.644043 0.0728871 0.761503
-21.7796 36.0521 74.8352 -0.617669 0.0921002 0.781026
-20.8112 36.7445 75.5343 -0.66035 0.110313 0.742798
-20.0651 37.4308 76.1158 -0.704993 0.0468207 0.704142
-19.495 38.0395 76.7878 -0.775166 -0.014631 0.631509
-18.7887 38.4748 77.6766 -0.77184 -0.0113768 0.635553
-18.1415 38.9438 78.3943 -0.730349 -0.00343225 0.683065
-17.4913 40.0997 79.1038 -0.735365 -0.0103779 0.677591
-17.3277 41.1166 79.2932 -0.728865 -0.0247667 0.683935
-17.2252 42.6569 79.4514 -0.68894 -0.0110735 0.724679
-16.9839 43.7163 79.6846 -0.685699 -0.0047257 0.72787
-16.7605 44.8275 79.8963 -0.683698 0.00252156 0.729761
-16.4021 46.193 80.251 -0.719018 -0.025694 0.69427
-15.9861 47.0535 80.7375 -0.719192 -0.0431959 0.693467
-15.3442 48.2365 81.3919 -0.67037 -0.0199892 0.741751
-14.4566 49.2761 82.2123 -0.66605 -0.0168402 0.745716
-13.8106 49.9539 82.801 -0.63768 0.00339133 0.769294
-13.1986 50.6693 83.2523 -0.612747 0.027303 0.789806
-12.477 51.2598 83.7821 -0.574248 0.00355431 0.818604
-11.682 51.5082 84.3355 -0.564364 -0.0147294 0.825358
-10.8527 51.5873 84.8977 -0.531419 -0.00168653 0.846225
-9.66158 51.5859 85.5792 -0.490094 -0.00441021 0.871597
-8.39718 51.538 86.2123 -0.423596 0.0160376 0.905709
-7.16801 51.5638 86.7378 -0.31455 0.00412113 0.949229
-6.04593 51.5316 87.1066 -0.313501 0.0113744 0.949456
-4.93734 51.5476 87.3839 -0.218806 0.0351089 0.975137
-3.86487 51.5854 87.6127 -0.171682 0.0273398 0.984773
-2.66071 51.5538 87.8223 -0.141962 0.0496426 0.987969
-1.61361 51.504 87.892 -0.0521416 0.0358813 0.997993
-0.451169 51.4792 87.9435 -0.00489807 0.0169214 0.99915
0.705918 51.5244 87.9134 0.0258588 -0.00365457 0.999658
1.78274 51.5585 87.8293 0.0997382 0.0179224 0.994824
2.93467 51.5944 87.661 0.198827 0.030179 0.979544
4.48848 51.4781 87.3052 0.243558 0.0139897 0.969783
5.6893 51.4991 86.9687 0.289574 0.0214875 0.956914
6.81944 51.4911 86.6265 0.30169 0.0323084 0.952718
7.83605 51.5157 86.2216 0.393682 0.0163591 0.919101
8.79875 51.5125 85.8004 0.461926 0.0146717 0.886726
10.4623 51.4846 84.8761 0.502386 0.0195451 0.864422
11.4194 51.559 84.2771 0.545435 0.0199831 0.837811
12.3091 51.5583 83.6826 0.573984 0.0138499 0.818476
13.1026 51.3116 83.0985 0.606869 -0.000771814 0.794622
13.8592 50.5336 82.4999 0.618896 -0.000124864 0.785471
14.5064 49.7708 81.9934 0.618087 -0.000432745 0.786106
15.4351 48.7222 81.1728 0.673274 0.00823678 0.739348
16.1059 48.1755 80.5649 0.681585 -0.00147247 0.731627
17.0087 47.2998 79.6878 0.694853 -0.00162698 0.719142
17.6524 46.715 79.0648 0.696818 0.00137967 0.717247
18.2168 45.938 78.518 0.69745 0.00217448 0.71663
18.5796 44.963 78.1512 0.763255 -0.0099406 0.64559
18.8191 44.005 77.882 0.769372 0.0115619 0.638695
19.135 42.3822 77.504 0.766926 -0.0123835 0.641616
19.3455 41.365 77.238 0.763881 -0.00462456 0.645309
19.2372 39.7666 77.3868 0.77493 0.00743732 0.632004
19.0215 38.7251 77.6811 0.775774 0.0176786 0.63076
18.48 37.2175 78.297 0.711243 0.0203499 0.702523
17.9394 36.4305 78.8665 0.699111 0.0231186 0.714558
17.2639 35.8737 79.4569 0.650358 0.00452323 0.759615
16.3334 35.4523 80.2424 0.61814 -0.0300653 0.785469
15.312 35.3111 81.0319 0.598949 -0.0347835 0.799847
14.0277 35.335 81.9585 0.58805 -0.0490781 0.807131
12.5865 35.567 82.9044 0.533497 -0.0800051 0.842005
11.7115 35.5696 83.4012 0.488334 -0.0693521 0.869897
10.3267 35.4791 84.1526 0.476117 -0.0824063 0.875512
9.30545 35.3208 84.6888 0.444908 -0.109185 0.88798
8.1642 35.0895 85.1266 0.373359 -0.157156 0.914271
7.07698 34.841 85.5023 0.330095 -0.168852 0.928534
6.01008 34.7787 85.8639 0.273397 -0.185997 0.942054
4.53734 34.7184 86.1908 0.223129 -0.171191 0.959609
3.34713 34.7103 86.3965 0.158473 -0.206736 0.965476
2.03847 34.5211 86.5435 0.0740776 -0.200946 0.976631
0.832508 34.4308 86.5981 0.0509882 -0.216271 0.974958
-0.943925 34.3087 86.562 -0.0509388 -0.188737 0.980699
-1.98554 34.2317 86.4903 -0.0627042 -0.19402 0.978943
-3.04793 34.1912 86.3932 -0.12089 -0.144571 0.982082
-4.05375 34.3048 86.2665 -0.213963 -0.161568 0.963387
-5.32787 34.416 86 -0.225296 -0.150518 0.962497
-6.34167 34.5611 85.7017 -0.323283 -0.143863 0.935287
-7.70395 34.5938 85.1917 -0.393803 -0.154795 0.906033
-7.26448 33.8019 85.2578 -0.401964 -0.133051 0.905892
-8.4154 33.7424 84.7362 -0.405822 -0.135886 0.903765
-9.47471 33.735 84.2574 -0.410547 -0.13781 0.901343
-10.7153 33.6937 83.6549 -0.482425 -0.112386 0.868644
-12.1556 33.8073 82.8466 -0.503509 -0.10421 0.857646
-13.2746 33.727 82.1412 -0.568633 -0.0944771 0.816326
-14.1747 33.178 81.4028 -0.597881 -0.066956 0.798405
-14.7535 32.029 80.9154 -0.572664 -0.0683943 0.816498
-15.1854 30.9084 80.5358 -0.556264 -0.0527177 0.829023
-15.4891 29.7668 80.2454 -0.5687 -0.0512695 0.820905
-15.9337 28.8676 79.8895 -0.565676 -0.0507828 0.823058
-16.4453 27.4425 79.4501 -0.564265 -0.0485493 0.824165
-16.7488 26.382 79.1783 -0.567068 -0.0538947 0.821893
-17.1785 24.7991 78.7704 -0.571105 -0.0541219 0.81909
-17.9401 23.1936 78.1336 -0.574138 -0.0506346 0.817188
-18.4527 22.346 77.7244 -0.576602 -0.0410369 0.815958
-18.868 21.4841 77.3933 -0.580463 -0.0303133 0.813712
-19.4297 20.7242 76.9634 -0.584114 -0.0265965 0.811225
-20.1313 19.5117 76.4 -0.592406 -0.0379697 0.804743
-20.0309 18.2592 76.4136 -0.593344 -0.0410492 0.803898
-19.5639 16.6214 76.6914 -0.590743 -0.0309874 0.806264
-19.0094 15.7871 77.062 -0.583591 -0.037143 0.811165
-18.6782 14.7979 77.2511 -0.580404 -0.0217802 0.814037
-18.3887 13.3542 77.4199 -0.561947 -0.0255268 0.826465
-18.3108 12.2592 77.4177 -0.55409 -0.0402695 0.831475
-18.6406 11.1588 77.1535 -0.558122 -0.032828 0.829078
-19.043 10.1954 76.8405 -0.568382 -0.0326416 0.822116
-19.6507 9.14078 76.3876 -0.582697 -0.0264477 0.812109
-20.2972 8.46484 75.8759 -0.594931 -0.0322137 0.803097
-20.8865 7.55122 75.3985 -0.614936 -0.00617112 0.788513
-21.3693 6.26887 75.0116 -0.623089 -0.00841049 0.782071
-21.0968 5.4733 75.2181 -0.620069 -0.013391 0.784375
-20.3317 5.20231 75.8155 -0.604011 -0.0022106 0.79697
-19.3461 4.8566 76.546 -0.582518 -0.0146208 0.812684
-18.2368 3.89923 77.301 -0.547303 -0.0172832 0.836749
-17.3986 3.20441 77.8317 -0.541863 -0.0149209 0.840292
-16.502 2.16886 78.4237 -0.546437 0.000867246 0.837497
-16.1652 0.71325 78.6294 -0.51471 -0.0144788 0.857089
-15.7833 -0.52904 78.8505 -0.505191 0.014051 0.86283
-15.6726 -1.55834 78.9428 -0.511067 0.0222128 0.859254
-15.6148 -2.60078 78.9965 -0.514391 0.013463 0.85745
-15.6289 -3.6385 79.0049 -0.51449 0.0138778 0.857384
-15.8987 -4.7023 78.8678 -0.513549 0.0199807 0.857827
-16.0037 -5.76428 78.8288 -0.515051 0.0169311 0.856988
-17.0136 -6.95087 78.2066 -0.571401 0.0221751 0.820371
-17.6012 -7.73608 77.8172 -0.573217 0.021921 0.819109
-18.743 -8.71148 77.0438 -0.583058 0.0275076 0.811871
-19.7163 -8.95682 76.3349 -0.606907 0.0164151 0.794337
-20.877 -9.04459 75.3969 -0.63957 0.00727248 0.768698
-22.1439 -8.64103 74.3653 -0.635639 -0.0208184 0.771706
-23.0834 -8.35284 73.6003 -0.649309 0.0095145 0.760445
-23.7046 -7.65264 73.0522 -0.654191 0.0142822 0.756195
-24.159 -6.84258 72.6438 -0.653836 0.01489 0.756489
-24.7126 -6.11045 72.1531 -0.663212 0.00113987 0.748431
-25.2863 -5.14729 71.635 -0.673658 0.00749045 0.738996
-25.5523 -3.4237 71.3833 -0.671452 0.00142615 0.741039
-25.8419 -1.66909 71.1236 -0.682656 -0.00299996 0.730733
-25.6451 -0.579869 71.3174 -0.683106 -0.00166626 0.730295
-25.4887 0.39028 71.4575 -0.677703 0.0113936 0.735199
-25.1886 1.37034 71.7208 -0.673339 -0.0162298 0.739155
-24.6797 2.23881 72.1927 -0.650135 0.00716174 0.759785
-24.0356 3.26735 72.7345 -0.648488 0.00373483 0.761205
-23.5746 4.179 73.1531 -0.648525 -0.0192451 0.760942
-22.7762 4.60141 73.8386 -0.636929 -0.017186 0.770706
-22.1378 5.5844 74.3779 -0.631357 -0.0153647 0.775336
-22.4304 6.84593 74.167 -0.632453 -0.0150141 0.774431
-23.3282 7.53 73.4175 -0.647321 -0.00294213 0.76221
-24.3819 8.05526 72.5305 -0.645082 -0.013081 0.763955
-25.501 8.81982 71.5797 -0.658035 -0.0240612 0.752602
-26.0253 9.66876 71.1235 -0.66883 -0.0115481 0.743325
-26.4812 10.4959 70.7262 -0.669921 -0.0277881 0.741911
-26.6795 11.4961 70.586 -0.670208 -0.0290088 0.741606
-26.7783 12.5271 70.5357 -0.671262 -0.0242433 0.740811
-26.5774 13.6278 70.7533 -0.657916 -0.0297097 0.752505
-26.0638 14.9331 71.2563 -0.658816 -0.0318511 0.75163
-25.6617 15.9708 71.6466 -0.661306 -0.0240045 0.749732
-24.6739 17.3302 72.5534 -0.654589 -0.0245343 0.755587
-24.2952 18.2358 72.9226 -0.652513 -0.0342363 0.757
-24.0998 19.3624 73.1491 -0.660789 -0.0326703 0.749844
-24.2902 20.4822 73.0249 -0.6648 -0.0294053 0.746441
-24.9706 21.7663 72.4648 -0.666226 -0.0221268 0.745402
-25.7736 23.4161 71.7885 -0.665305 -0.0186117 0.746339
-26.136 24.905 71.5047 -0.666186 -0.0203231 0.745508
-26.2632 26.0101 71.4098 -0.667767 -0.0106568 0.744294
-26.251 27.3298 71.4308 -0.668079 0.00336472 0.744082
-26.2792 28.6368 71.4007 -0.665847 -0.00189421 0.746075
-26.1684 29.7261 71.5066 -0.66476 -0.00507487 0.747039
-25.8107 31.2348 71.8152 -0.641501 0.0198736 0.766862
-25.4161 32.0966 72.1197 -0.642069 0.0253468 0.766222
-25.089 33.086 72.3544 -0.6367 0.0283046 0.770591
-24.37 34.0191 72.8964 -0.621866 0.0449463 0.781833
-23.8247 34.9491 73.273 -0.623015 0.0529342 0.780414
-23.2203 35.6414 73.7062 -0.62238 0.0518846 0.780991
-22.5834 36.2914 74.174 -0.62985 0.0838334 0.771942
-21.59 37.0612 74.8267 -0.604377 0.120659 0.787499
-20.8742 37.6283 75.3118 -0.678079 0.135603 0.721665
-20.1382 38.4299 76.0598 -0.729547 -0.0252091 0.683465
-19.3975 39.0357 76.947 -0.772348 -0.0114553 0.634894
-18.64 39.4285 77.8529 -0.767353 0.00353301 0.641215
-18.1026 40.208 78.441 -0.733512 -0.0054912 0.679634
-17.89 41.338 78.7091 -0.730535 -0.0382921 0.681801
-17.8757 42.3571 78.7866 -0.751395 -0.0298909 0.659114
-17.5938 43.3837 79.1081 -0.695797 -0.012332 0.717943
-17.4581 44.6549 79.2439 -0.684506 -0.00125785 0.728996
-17.1729 45.6137 79.5055 -0.692561 0.0152852 0.721197
-16.8827 46.8338 79.7977 -0.706392 -0.043439 0.706348
-16.3503 48.007 80.4213 -0.716323 -0.0323559 0.696899
-15.6856 49.0013 81.0905 -0.683807 -0.00815047 0.729618
-15.0972 49.6139 81.6474 -0.674157 -0.0115797 0.738397
-14.438 50.3142 82.2534 -0.666316 -0.0177595 0.745458
-13.6325 51.2687 82.8953 -0.611423 0.00931602 0.791102
-12.9158 51.9157 83.4521 -0.603757 -0.000864886 0.797116
-12.0277 52.2105 84.1017 -0.584811 0.00382826 0.81116
-11.0724 52.5055 84.7686 -0.528523 -0.00945669 0.847929
-10.1792 52.2539 85.2811 -0.495736 0.00439136 0.868461
-9.30759 52.5127 85.7902 -0.457106 -0.012909 0.887829
-8.36121 52.2494 86.2165 -0.423596 0.0160376 0.905709
-7.40364 52.5039 86.6599 -0.369004 0.0072076 0.927497
-6.3678 52.2823 86.9934 -0.289122 0.0273425 0.956892
-5.1114 52.2791 87.3205 -0.214056 0.0272317 0.976442
-3.90746 52.5127 87.5804 -0.194982 0.0306117 0.980014
-2.19185 52.2778 87.8231 -0.113272 0.0756261 0.990681
-0.935643 52.3207 87.8939 -0.0357689 0.0389054 0.998602
0.173729 52.3798 87.9312 -0.00481253 0.017006 0.999123
1.48097 52.3167 87.8459 0.110525 0.0319979 0.993044
2.5289 52.3615 87.7193 0.15716 0.0403304 0.985923
3.72833 52.3203 87.4762 0.20638 0.016036 0.978337
4.70307 52.2356 87.2254 0.259807 0.0288961 0.965223
6.14018 52.3585 86.8126 0.30235 0.0316054 0.95253
7.18215 52.3091 86.4698 0.314205 0.0424194 0.948407
8.20453 52.2568 86.051 0.414852 0.0347696 0.908669
9.11863 52.249 85.6081 0.435921 0.0562539 0.898225
10.0709 52.3298 85.0822 0.501473 0.0310556 0.864616
11.1231 52.4763 84.448 0.541069 0.0182904 0.840705
12.4475 52.2886 83.5723 0.557371 0.0357909 0.829492
13.4653 52.081 82.8084 0.623384 0.00348729 0.781903
14.5112 50.8054 81.9876 0.647807 0.00190801 0.761071
15.1811 49.9239 81.3913 0.671866 0.00603702 0.740643
15.9552 49.2116 80.6937 0.679978 0.008779 0.733124
16.8308 48.394 79.8655 0.69554 0.00118048 0.718486
17.5666 47.8363 79.1517 0.695427 -0.00453754 0.718582
18.1175 47.2121 78.5979 0.713136 -0.00441979 0.701011
18.8919 45.7758 77.8114 0.727419 0.013009 0.686065
19.2162 44.7883 77.4012 0.757365 -0.0367723 0.651942
19.412 43.7446 77.1714 0.771849 0.0113292 0.635705
19.7265 42.0816 76.7922 0.763763 -0.00607804 0.64542
19.9198 40.9885 76.5636 0.760282 -0.00287913 0.649587
19.7221 39.6582 76.7935 0.767719 0.00431681 0.640667
19.6007 38.6026 76.9954 0.754805 0.0454755 0.654368
19.0368 36.9265 77.7563 0.729296 0.0366467 0.682186
18.6176 36.1124 78.2131 0.700775 0.0274268 0.712784
18.0073 35.514 78.8175 0.694313 0.0177221 0.719455
17.3308 35.0295 79.4046 0.650004 0.00436291 0.759918
16.1515 34.637 80.3506 0.610482 -0.0275739 0.791549
15.2959 34.4369 81.0047 0.600268 -0.0362335 0.798813
14.1392 34.5756 81.8325 0.567421 -0.0545716 0.821617
13.2588 34.7449 82.4068 0.52948 -0.0422017 0.847227
12.2839 34.8522 83.0227 0.507728 -0.0767064 0.857758
10.9114 34.7482 83.7654 0.476739 -0.0831833 0.8751
9.88597 34.5972 84.3086 0.44759 -0.109084 0.88666
8.93021 34.4124 84.7247 0.391451 -0.127941 0.910758
7.90401 34.1151 85.0771 0.348902 -0.143402 0.926028
6.80655 34.0445 85.4379 0.311147 -0.165025 0.935703
5.84082 33.9853 85.757 0.26941 -0.18443 0.9438
4.24343 33.9599 86.1299 0.228928 -0.166304 0.959132
3.19631 33.9819 86.299 0.144131 -0.150282 0.978065
2.12483 33.6545 86.3668 0.0822296 -0.190096 0.977917
0.981975 33.5753 86.4164 0.0523213 -0.18311 0.981694
-0.0750044 33.4517 86.443 -0.00956053 -0.191675 0.980264
-1.32336 33.5144 86.386 -0.0531478 -0.190755 0.980197
-2.49077 33.4322 86.295 -0.0706556 -0.192805 0.97869
-3.53394 33.4928 86.2307 -0.0962786 -0.168501 0.980385
-4.61355 33.5809 86.0106 -0.236102 -0.218886 0.946745
-6.17189 33.8187 85.6498 -0.295223 -0.18011 0.937037
-7.15716 33.7902 85.3046 -0.366433 -0.133079 0.919757
-18.15 33.6854 78.3437 -0.649983 -0.00917892 0.75981
-18.6687 33.8858 77.8979 -0.652107 -0.00172092 0.758117
-19.544 33.4975 77.1384 -0.654461 -0.00437451 0.756083
-20.4201 32.686 76.3702 -0.661944 0.0478556 0.747961
-21.1415 31.8834 75.7701 -0.664775 0.0377848 0.746087
-21.7033 31.1031 75.3393 -0.646328 0.0486291 0.761509
-22.1323 30.2414 74.9981 -0.647697 0.00795885 0.761856
-22.4743 29.225 74.7163 -0.648578 0.00716729 0.761115
-22.7199 28.1309 74.5117 -0.647827 0.00181258 0.761785
-22.8068 26.644 74.4359 -0.647884 -0.00482064 0.761724
-22.6522 25.5103 74.5468 -0.628807 -0.00841277 0.777475
-22.1617 24.803 74.945 -0.631905 0.000751085 0.775045
-21.2661 25.3699 75.6767 -0.634831 0.00216417 0.772648
-20.7325 26.3099 76.1327 -0.639674 -0.0152158 0.768496
-20.2464 27.4149 76.5455 -0.630723 -0.0091047 0.775954
-19.8958 28.325 76.8411 -0.63083 -0.0092653 0.775866
-19.5962 29.3009 77.0981 -0.631091 -0.0119803 0.775616
-19.301 30.2621 77.3532 -0.63068 -0.0117553 0.775954
-18.9983 31.2584 77.6088 -0.629951 -0.00439155 0.776622
-18.661 32.4498 77.8874 -0.64789 0.00177364 0.761646
-18.2186 33.4046 78.2784 -0.644824 -0.0168358 0.764137
-19.1953 32.873 77.4368 -0.651724 -0.00683415 0.758412
-19.9343 32.1486 76.806 -0.645438 0.0161214 0.76359
-20.7155 31.3055 76.1778 -0.651592 0.0280506 0.757811
-21.4278 30.3055 75.5942 -0.646218 0.00785158 0.763113
-21.7889 29.3509 75.298 -0.646776 0.00688129 0.762648
-22.0678 28.2798 75.0659 -0.647662 0.00212187 0.761925
-22.2113 27.2927 74.9412 -0.632688 -0.0149805 0.774232
-22.1158 25.8747 74.9866 -0.629237 -0.0146195 0.77707
-21.3381 26.5522 75.6346 -0.633308 -0.0187182 0.773669
-20.5984 28.0306 76.2662 -0.632381 -0.0078814 0.774617
-20.2175 29.0591 76.5867 -0.635816 -0.00475946 0.771808
-19.931 30.082 76.8348 -0.639275 -0.00731211 0.768944
-19.6461 31.18 77.0685 -0.644051 0.0146711 0.764791
-19.325 32.4023 77.325 -0.648506 0.0122777 0.761107
-19.2853 32.5569 77.3561 -0.64789 0.00177364 0.761646
-20.4238 30.2522 76.4265 -0.639655 -0.00729507 0.768627
-20.7626 28.971 76.1417 -0.632358 -0.00512306 0.774654
-21.1659 28.1094 75.8037 -0.632381 -0.0078814 0.774617
-21.3854 28.1299 75.6247 -0.632481 -0.00795443 0.774535
-21.0515 29.3295 75.9071 -0.63209 -0.00240173 0.774891
-20.6025 30.0092 76.2754 -0.635949 -0.00476936 0.771696
-22.5317 18.1283 74.4089 -0.642986 -0.0425556 0.76469
-21.6319 17.1215 75.115 -0.646277 -0.0371463 0.762186
-21.129 15.8347 75.4682 -0.61789 -0.0338061 0.785536
-20.6513 14.7346 75.7902 -0.601048 -0.0292842 0.798559
-20.3106 13.2545 76.0184 -0.61254 -0.0236462 0.789919
-20.3505 12.0551 75.9307 -0.60868 -0.04096 0.792356
-20.8407 11.0327 75.5099 -0.616956 -0.00914604 0.78691
-21.3833 10.3058 75.0667 -0.622582 -0.0144268 0.782421
-22.4914 9.57556 74.143 -0.643602 -0.0349064 0.764564
-23.8386 10.1801 73.0518 -0.637417 -0.0449611 0.769192
-24.707 11.1915 72.3499 -0.661115 -0.0158656 0.750107
-24.852 12.8684 72.2497 -0.660731 -0.0130236 0.75051
-24.528 13.8757 72.5628 -0.661812 -0.019111 0.749423
-23.7443 15.3857 73.2615 -0.63907 -0.00324246 0.769138
-23.2083 16.3284 73.7402 -0.640267 -0.0359077 0.767274
-22.6584 17.6942 74.2784 -0.641613 -0.0435994 0.765788
-22.6213 17.8226 74.3168 -0.641354 -0.0432427 0.766025
-22.2293 16.5503 74.5823 -0.647088 -0.0327914 0.761709
-21.7493 15.793 74.9554 -0.639551 -0.0405856 0.767676
-21.3221 14.8235 75.2608 -0.63781 -0.0300311 0.769541
-20.9827 13.8588 75.5054 -0.625597 -0.0302969 0.779558
-20.8921 12.6595 75.5295 -0.622993 -0.0332529 0.781521
-21.2221 11.6073 75.2236 -0.621913 -0.0290315 0.782546
-22.1301 10.5656 74.4773 -0.622791 -0.0145147 0.782253
-22.9587 10.5204 73.7929 -0.638742 -0.0385534 0.768423
-23.7419 11.0454 73.1736 -0.637815 -0.0280792 0.769626
-24.302 12.2247 72.7234 -0.661009 -0.0120996 0.75028
-24.131 13.2326 72.8963 -0.663057 -0.0193697 0.748316
-23.7032 14.2367 73.2912 -0.63561 -0.01896 0.771771
-23.0097 15.529 73.8754 -0.639928 -0.0162997 0.768159
-22.5529 16.3497 74.2989 -0.647777 -0.0333574 0.761098
-22.4144 15.3581 74.3744 -0.647855 -0.0322289 0.761081
-21.6152 13.9363 74.9965 -0.634079 -0.0178596 0.773061
-21.4488 12.7518 75.0881 -0.625697 -0.0306805 0.779463
-22.1042 11.5281 74.5211 -0.621543 -0.0269775 0.782915
-23.1576 11.5226 73.6678 -0.637217 -0.019175 0.770446
-23.6678 12.5229 73.2703 -0.636802 -0.0211069 0.770735
-23.3126 13.6258 73.5968 -0.636572 -0.0225551 0.770886
-22.8173 14.5723 74.0251 -0.633565 -0.0163169 0.773517
-22.4744 15.2484 74.3186 -0.643646 -0.0183021 0.764948
-22.3113 14.1112 74.4298 -0.633611 -0.0166334 0.773473
-22.9226 12.8653 73.8956 -0.636893 -0.0216057 0.770646
-21.9857 12.9026 74.6619 -0.62555 -0.0270189 0.779708
-22.0095 13.3928 74.6616 -0.630451 -0.0233048 0.775839
-21.3117 4.64672 75.0325 -0.626174 -0.0140045 0.779544
-22.1772 4.33047 74.3244 -0.632247 -0.01374 0.774644
-22.9903 3.59199 73.6386 -0.642886 -0.0033353 0.765951
-23.8863 2.43397 72.8715 -0.653553 0.00638626 0.756852
-24.3947 1.47339 72.4439 -0.660543 -0.00588756 0.750524
-24.7669 0.505474 72.1089 -0.671356 0.0144521 0.740994
-25.0547 -0.673355 71.8693 -0.676739 0.00820993 0.736124
-25.1555 -2.31739 71.7454 -0.673313 -0.00963335 0.739274
-24.9101 -3.70201 71.9681 -0.672266 0.00461703 0.740295
-24.5479 -4.97238 72.2881 -0.657061 0.00145381 0.753807
-24.0957 -5.80646 72.6898 -0.655935 0.00650634 0.75479
-23.5661 -6.61754 73.1511 -0.652394 0.0093618 0.757796
-23.0035 -7.30014 73.6509 -0.653057 0.0139726 0.757178
-22.2814 -7.81059 74.2742 -0.641224 -0.00474304 0.767139
-21.4749 -8.08562 74.9313 -0.632952 -0.0213382 0.773888
-20.4694 -8.27287 75.7453 -0.615773 0.00447651 0.787282
-19.393 -8.12881 76.5424 -0.59434 0.0296363 0.803659
-18.5999 -7.78162 77.1121 -0.594285 0.0300306 0.803687
-17.779 -6.79418 77.6685 -0.572341 0.0212433 0.81974
-17.0957 -5.84991 78.1186 -0.570949 0.0229985 0.820664
-16.4521 -4.34217 78.5281 -0.542009 0.0196725 0.83947
-16.3169 -3.20907 78.5817 -0.517279 0.0120207 0.85573
-16.3343 -2.17179 78.5576 -0.514841 0.0122524 0.857198
-16.42 -1.16781 78.4882 -0.506288 0.0159476 0.862177
-16.8122 0.577752 78.2239 -0.523217 0.00326904 0.851935
-17.1936 1.6641 77.9677 -0.557429 0.00577325 0.830179
-17.8048 2.5707 77.5623 -0.549786 -0.00278505 0.835301
-18.8162 3.51765 76.9133 -0.565579 -0.0139141 0.824221
-19.8452 4.15549 76.1766 -0.590082 -0.012157 0.807218
-20.6401 4.46029 75.562 -0.620159 -0.0126144 0.784375
-20.9366 4.54738 75.3291 -0.621316 -0.014186 0.783428
-20.8248 3.72892 75.4053 -0.623425 -0.00970237 0.781823
-19.5749 3.17617 76.3562 -0.594192 -0.0169354 0.804144
-18.6257 2.38524 77.0215 -0.556254 -0.0102246 0.830877
-17.8209 1.38087 77.5485 -0.552803 -0.0011333 0.833304
-17.3332 0.121843 77.8875 -0.56551 0.004015 0.824731
-17.0291 -1.24439 78.1002 -0.565956 3.31734e-05 0.824435
-16.9285 -2.72184 78.1727 -0.569735 0.0022381 0.821826
-16.9965 -3.80695 78.1372 -0.568507 0.0160719 0.822511
-17.2907 -4.78086 77.9563 -0.569949 0.0183337 0.821474
-18.0313 -5.96221 77.4708 -0.570652 0.0215494 0.820908
-19.071 -7.15862 76.7409 -0.596245 0.0266276 0.80236
-19.906 -7.46126 76.1379 -0.594467 0.033205 0.80343
-21.3547 -7.32567 75.0504 -0.613944 0.00347543 0.788663
-22.3309 -6.9339 74.2189 -0.646833 0.0127246 0.762525
-23.1451 -6.14496 73.5105 -0.651407 0.00336751 0.758721
-23.9139 -4.87105 72.8395 -0.655494 0.00131102 0.75518
-24.4344 -3.07737 72.3964 -0.663833 0.000781516 0.747784
-24.5493 -1.7693 72.3036 -0.649895 -0.00208653 0.76002
-24.3843 -0.417106 72.4483 -0.651112 -0.00437161 0.758968
-24.0298 0.780914 72.7576 -0.643506 0.000293844 0.76538
-23.5492 1.8412 73.1662 -0.652467 0.00624563 0.75779
-22.5476 3.04596 74.0079 -0.637424 -0.00303551 0.770443
-21.524 3.81865 74.8484 -0.627949 -0.00882066 0.778187
-21.3241 3.8397 75.0084 -0.623777 -0.00993412 0.781539
-21.4949 2.9193 74.8603 -0.624241 -0.00953258 0.781174
-20.6744 2.88595 75.5147 -0.623265 -0.00969414 0.781951
-19.7205 2.40049 76.2343 -0.597143 -0.00802151 0.802094
-18.562 1.27267 77.0412 -0.563071 -0.0176937 0.826219
-18.1052 0.3669 77.3564 -0.570119 0.00292876 0.821557
-17.727 -0.85396 77.6205 -0.567022 0.000455084 0.823699
-17.5491 -1.93351 77.7413 -0.567846 -0.00121045 0.823134
-17.6463 -3.61628 77.6868 -0.566979 0.0123912 0.823639
-18.0717 -4.82416 77.4139 -0.574952 0.0183868 0.817979
-18.8288 -5.8997 76.8891 -0.59038 0.000903152 0.807125
-19.5457 -6.48674 76.3655 -0.593501 0.0138517 0.804601
-20.5154 -6.68493 75.6566 -0.593538 0.0174121 0.804615
-21.5304 -6.47925 74.8762 -0.636651 0.0240291 0.77077
-22.3384 -6.02904 74.1922 -0.641892 0.0170901 0.766591
-23.266 -4.78819 73.399 -0.644523 0.00149861 0.764543
-23.6362 -3.91321 73.0839 -0.651691 -0.000866273 0.758484
-23.8589 -2.95458 72.8928 -0.652437 -0.000270938 0.757843
-23.9584 -1.943 72.8084 -0.649895 -0.00208653 0.76002
-23.7102 -0.127194 73.0268 -0.643798 0.000229484 0.765139
-23.3615 0.806336 73.3095 -0.638932 -0.00456578 0.769193
-22.7414 1.84862 73.8408 -0.634673 -0.00816613 0.772722
-22.0673 2.52758 74.3939 -0.630586 -0.00629881 0.776093
-21.7409 2.79094 74.6619 -0.627797 -0.00845579 0.778318
-21.6477 1.934 74.7279 -0.626235 -0.00679134 0.7796
-20.4903 2.01174 75.6528 -0.613384 -0.00926174 0.789616
-19.2958 1.09813 76.5368 -0.580097 -0.0132345 0.814173
-18.7491 0.254037 76.9101 -0.56967 0.00245293 0.82187
-18.3912 -0.7302 77.1543 -0.583778 -0.00752604 0.811847
-18.1343 -2.61945 77.3344 -0.582724 0.00680491 0.81256
-18.5471 -4.28749 77.0677 -0.574675 0.0143743 0.818249
-19.3477 -5.37437 76.5089 -0.590426 0.000919355 0.807091
-20.3578 -5.88896 75.7564 -0.600526 0.00345076 0.799598
-21.1657 -5.81626 75.1552 -0.614189 0.0221046 0.788478
-21.9563 -5.41767 74.4992 -0.631661 0.0104387 0.775168
-22.5758 -4.73231 73.981 -0.642353 0.00742072 0.766363
-23.0064 -3.87404 73.625 -0.647659 -0.00381636 0.761897
-23.2902 -2.70645 73.3818 -0.651401 0.000439034 0.758733
-23.3141 -1.20965 73.3608 -0.642487 0.00559833 0.766169
-23.1063 -0.213131 73.5267 -0.637305 0.00454906 0.770599
-22.6002 0.93313 73.9461 -0.635455 -0.010522 0.772038
-22.0495 1.58445 74.4001 -0.628833 -0.00785277 0.777499
-21.8303 0.837088 74.5689 -0.62822 -0.00870013 0.777987
-20.6694 1.25837 75.5046 -0.6139 -0.00998138 0.78921
