7.33976 39.7995 89.9533 0.329829 -0.0577844 0.942265
8.43518 39.8825 89.4839 0.411967 -0.0141109 0.911089
9.79297 40.0541 88.7823 0.478742 -0.0521818 0.876403
10.8662 40.2177 88.2058 0.479941 -0.0458903 0.876076
11.7965 40.3566 87.6086 0.552514 -0.0216885 0.833222
13.255 40.5292 86.6223 0.590442 -0.0306436 0.805916
14.3598 40.6824 85.7532 0.634154 -0.0195379 0.772958
15.3732 40.8111 84.9154 0.640397 -0.0165385 0.767866
16.1435 41.0111 84.2753 0.673325 -0.0222423 0.73886
16.6857 41.7165 83.7847 0.681947 -0.0128594 0.731285
16.2498 43.4049 84.2236 0.67691 -0.0155419 0.735874
15.7064 44.0774 84.7292 0.656143 -0.0154236 0.754073
14.6074 44.8868 85.6259 0.61586 0.00345279 0.787848
13.7418 45.2285 86.3091 0.609397 -0.0226086 0.792483
12.1782 45.3354 87.4769 0.594903 -0.0255309 0.803392
11.2829 45.3608 88.0386 0.52952 0.00713768 0.848266
10.306 45.3132 88.6278 0.491398 0.0118796 0.87035
9.31218 45.2638 89.1582 0.469034 0.0272378 0.882759
8.36955 45.2557 89.6106 0.414663 0.00323338 0.909752
6.78268 45.2838 90.2186 0.333787 0.0169873 0.942483
5.80644 45.2958 90.5276 0.284575 0.0136505 0.958377
4.77196 45.3011 90.8017 0.201146 0.0268038 0.979194
3.54513 45.2835 91.0537 0.188512 0.0109186 0.981805
2.08569 45.2398 91.2704 0.109821 0.0494065 0.992723
0.309785 45.2702 91.398 0.0216586 0.0250009 0.999424
-0.750998 45.3025 91.4035 0.00359005 0.0272326 0.999622
-1.77574 45.3288 91.3057 -0.0983939 -0.00213574 0.995145
-3.5329 45.3307 91.068 -0.189122 -0.0230539 0.981438
-4.62863 45.3088 90.8386 -0.235963 -0.0282168 0.97071
-5.59228 45.2959 90.5678 -0.271642 -0.0174752 0.962239
-6.98315 45.3043 90.1723 -0.311362 0.0295506 0.949827
-7.95508 45.3142 89.8517 -0.340992 0.00558849 0.939307
-8.8799 45.3138 89.4518 -0.416718 -0.00072809 0.909024
-9.87783 45.3123 88.9869 -0.432847 -0.0101739 0.901314
-10.7591 45.34 88.5341 -0.470981 -0.00281166 0.882057
-10.7889 46.0895 88.5112 -0.494077 -0.0323243 0.867614
-11.8469 46.0837 87.9271 -0.517933 -0.00577754 0.8545
-13.3928 45.9498 86.887 -0.601984 -0.0156875 0.796792
-14.2028 45.5899 86.1975 -0.638627 -0.019721 0.769155
-14.9796 44.758 85.5206 -0.669315 -0.0304254 0.742332
-15.3055 43.7564 85.1773 -0.668443 -0.0438455 0.742436
-15.4655 42.7689 84.9772 -0.656252 -0.035978 0.753683
-15.6344 41.7409 84.7816 -0.656497 -0.034437 0.753541
-15.8435 40.6458 84.5401 -0.66331 -0.0443297 0.74703
-16.1903 39.4189 84.1585 -0.654288 -0.0728731 0.752145
-15.3786 39.3472 84.8413 -0.645294 -0.100742 0.757263
-14.2402 39.372 85.812 -0.643398 -0.100428 0.758916
-13.4172 39.3834 86.4854 -0.587141 -0.0906884 0.802972
-12.229 39.3712 87.2819 -0.554303 -0.068713 0.829401
-11.2403 39.3751 87.9505 -0.554704 -0.0874367 0.827438
-10.316 39.3956 88.5103 -0.427044 -0.118159 0.896093
-9.33447 39.4409 88.959 -0.408386 -0.099978 0.907311
-8.29781 39.457 89.4599 -0.413346 -0.0433804 0.907781
-7.12575 39.4079 89.9329 -0.374312 -0.00733013 0.927273
-5.95129 39.2525 90.4051 -0.341915 -0.0113893 0.939603
-4.93894 39.16 90.7052 -0.246384 -0.0327683 0.968545
-3.9451 39.1306 90.945 -0.227458 -0.0235627 0.973463
-2.72331 39.0882 91.1361 -0.143625 -0.0515599 0.988286
-1.26359 39.1431 91.3496 -0.0936284 -0.000965123 0.993322
-0.0554488 39.2052 91.3999 -0.0431696 0.0448308 0.998061
1.09796 39.2168 91.3815 0.0657154 0.0282841 0.996674
2.17429 39.1885 91.2511 0.106156 0.0189402 0.993903
3.4249 39.1689 91.0419 0.244444 -0.0179249 0.969411
5.20064 39.0487 90.5715 0.252319 -0.0223821 0.967383
6.22676 38.9873 90.2631 0.29528 -0.100744 0.950016
7.84932 39.0337 89.7309 0.322345 -0.0803867 0.942877
9.09454 39.1716 89.0991 0.461894 -0.0610742 0.884827
10.3495 39.3557 88.4366 0.492718 -0.0705588 0.86702
11.2272 39.4925 87.9298 0.52676 -0.0739694 0.846469
12.6786 39.6986 86.9975 0.557306 -0.0777026 0.826453
13.604 39.8357 86.3098 0.610234 -0.0493891 0.790679
14.439 39.9327 85.6706 0.622158 -0.033203 0.781914
15.381 40.0158 84.8804 0.648708 -0.0379684 0.760088
16.5843 40.396 83.8482 0.669686 -0.0377523 0.741681
17.3387 41.4031 83.1733 0.681177 -0.00783586 0.732077
17.3357 42.4798 83.1895 0.692328 -0.0164727 0.721194
17.0273 43.3753 83.5015 0.680041 -0.0208819 0.732877
16.38 44.3493 84.1175 0.674365 -0.0097515 0.738334
15.5854 45.1494 84.8523 0.680519 0.012009 0.732624
14.7585 45.6963 85.5306 0.615898 -0.0288011 0.787298
13.9968 45.9652 86.1344 0.608498 -0.0245925 0.793126
12.7496 46.0939 87.0782 0.598031 -0.0228452 0.801132
11.691 46.1289 87.7772 0.530618 0.00639326 0.847587
10.7309 46.1119 88.3752 0.521223 0.00274229 0.85336
9.80748 46.0594 88.8703 0.469211 0.0264121 0.882691
8.91316 46.0247 89.3459 0.449652 0.0167094 0.892733
7.82965 46.0098 89.8007 0.378053 0.0404713 0.924899
6.22599 46.0559 90.376 0.301967 0.0246458 0.952999
5.24847 46.0669 90.6817 0.279411 0.0447204 0.958921
4.09749 46.0608 90.9235 0.204845 0.00593216 0.978776
2.87278 46.0423 91.1535 0.123296 0.0289083 0.991765
1.81436 46.0284 91.2672 0.106483 0.0201081 0.994111
-0.0553068 46.0576 91.3803 0.0134487 0.026445 0.999557
-1.12728 46.0856 91.3723 -0.0933044 -0.00882173 0.995577
-2.37198 46.0875 91.2583 -0.123489 0.00100682 0.991855
-3.36397 46.0933 91.1039 -0.174574 -0.00805692 0.98461
-5.29296 46.0695 90.6645 -0.271969 -0.00342473 0.962295
-6.50792 46.0622 90.3149 -0.293916 -0.00590845 0.955715
-7.48436 46.071 90.0004 -0.310292 -0.0118054 0.950568
-8.96636 46.083 89.4389 -0.416918 -0.0592941 0.906998
-9.95629 46.0991 88.9777 -0.433309 -0.0534335 0.899575
-10.2722 46.0967 88.8212 -0.477763 -0.0599646 0.875446
-10.4459 46.8806 88.7765 -0.459558 -0.0385515 0.88709
-8.86005 46.8547 89.5373 -0.376582 -0.0304771 0.92425
-7.72869 46.836 89.9304 -0.317893 -0.00899857 0.948035
-5.9931 46.8282 90.4654 -0.28269 0.00242685 0.959208
-4.95021 46.8427 90.7641 -0.255508 0.0121065 0.966435
-3.87326 46.8584 91.0177 -0.17285 -0.00299698 0.984942
-2.74167 46.8668 91.2064 -0.130632 0.00281776 0.991186
-1.53607 46.8564 91.3309 -0.0862969 0.0144301 0.996159
-0.445764 46.8384 91.3619 -0.00288946 0.0294518 0.999539
0.575132 46.8195 91.3516 0.0445366 0.0349068 0.997921
2.47408 46.821 91.1804 0.123402 0.0290111 0.991753
3.52936 46.8259 91.0308 0.141423 0.0379666 0.98922
4.60817 46.8293 90.8119 0.204691 0.00610886 0.978808
5.69753 46.8282 90.512 0.298343 0.038061 0.953699
6.67528 46.8067 90.2051 0.305454 0.0402148 0.951347
8.1874 46.7759 89.6401 0.37813 0.00964528 0.925702
9.11961 46.7959 89.2238 0.44532 0.0244377 0.894584
10.0588 46.8436 88.7249 0.468857 0.01186 0.883194
10.9928 46.893 88.2291 0.4991 -0.00489811 0.86564
11.8629 46.8996 87.6825 0.533254 -0.0192648 0.845735
13.2944 46.8323 86.684 0.599615 -0.0102543 0.800223
14.2724 46.7112 85.9461 0.608498 -0.0245925 0.793126
15.0094 46.4381 85.3232 0.661429 0.0253602 0.749578
15.7278 45.9531 84.7036 0.671076 0.019267 0.741037
16.4377 45.3069 84.0571 0.68135 0.00866883 0.731906
17.0708 44.5639 83.4762 0.692774 0.00302204 0.72097
17.809 43.1374 82.7312 0.704416 -0.0106937 0.709705
18.0167 42.0846 82.5151 0.701483 -0.00522004 0.712664
17.6057 40.3186 82.9133 0.691854 -0.00516088 0.721863
16.9884 39.6934 83.445 0.661628 -0.0171484 0.749199
16.1043 39.3226 84.2265 0.660376 -0.0382519 0.749831
15.2205 39.2265 84.9754 0.646279 -0.0465117 0.761681
14.0858 39.1302 85.875 0.603758 -0.0649792 0.79444
13.105 39.0023 86.621 0.608396 -0.0708754 0.790459
12.2552 38.8743 87.2011 0.569254 -0.0913669 0.817068
10.8854 38.6622 88.0503 0.506981 -0.0846448 0.85779
9.80398 38.4906 88.6597 0.481824 -0.188061 0.855846
8.4053 38.3039 89.337 0.442121 -0.151416 0.884081
7.45894 38.2182 89.7509 0.392438 -0.173487 0.903266
5.88959 38.2015 90.2766 0.282649 -0.105189 0.953432
4.93177 38.2626 90.5645 0.269667 -0.101539 0.957519
3.68458 38.3581 90.9054 0.201617 -0.147352 0.965787
2.50116 38.3862 91.1865 0.21699 -0.115437 0.962351
0.872248 38.441 91.3927 0.0382938 0.00273171 0.999257
-0.643216 38.3987 91.3806 -0.0704496 -0.0486375 0.99516
-1.76543 38.3215 91.2324 -0.134988 -0.0634811 0.988802
-2.91854 38.2878 91.066 -0.143625 -0.0515599 0.988286
-4.35953 38.3129 90.7553 -0.163162 -0.202163 0.959592
-5.45102 38.4042 90.5189 -0.280522 -0.0934817 0.954635
-6.77525 38.5556 90.0735 -0.358746 -0.0468012 0.930928
-8.16848 38.6745 89.4542 -0.450027 -0.0847338 0.888982
-9.10708 38.6713 88.9753 -0.432089 -0.0936797 0.896608
-10.0274 38.6386 88.5419 -0.445574 -0.132273 0.885419
-11.605 38.6177 87.623 -0.546735 -0.0859245 0.832772
-12.452 38.6246 87.071 -0.554303 -0.068713 0.829401
-13.3672 38.6243 86.4301 -0.625242 -0.116336 0.771711
-14.5792 38.6119 85.4241 -0.644117 -0.100611 0.758281
-15.8166 38.3983 84.3892 -0.62162 -0.0532526 0.781502
-16.7221 38.0415 83.5716 -0.6753 -0.0533389 0.735573
-16.9011 39.2371 83.4797 -0.684222 -0.0391063 0.728223
-16.6122 40.1771 83.8125 -0.68147 -0.0454021 0.7304
-16.2804 41.4773 84.1913 -0.679933 -0.0316185 0.732522
-16.0765 42.5875 84.4237 -0.686951 -0.0284708 0.726146
-15.9386 43.608 84.5908 -0.685077 -0.0275867 0.727946
-15.7505 44.6383 84.8088 -0.684722 -0.0282206 0.728257
-15.1978 45.7427 85.358 -0.666695 -0.0219246 0.744991
-14.574 46.2888 85.9179 -0.64925 -0.0223123 0.76008
-13.6176 46.7287 86.7325 -0.603212 -0.01609 0.795977
-12.3169 46.8435 87.6217 -0.565758 -0.0245156 0.823826
-11.1289 46.8628 88.3767 -0.511725 -0.0775153 0.85564
-10.5877 46.8799 88.6998 -0.492559 -0.0542181 0.868055
-10.2269 47.6362 88.9219 -0.474238 -0.0414921 0.879356
-9.29171 47.6292 89.3861 -0.431759 -0.0517455 0.9004
-8.33602 47.6093 89.7249 -0.330143 -0.00460214 0.943915
-7.329 47.5941 90.0689 -0.282815 -0.022568 0.958582
-5.52318 47.5992 90.6015 -0.278483 0.000638807 0.96043
-4.42576 47.6191 90.8713 -0.235644 0.026214 0.971485
-3.40031 47.6359 91.1041 -0.145593 0.0138383 0.988713
-2.39579 47.6244 91.2257 -0.118425 0.0332453 0.992406
-0.855655 47.6148 91.3296 -0.00992006 0.0400317 0.999144
0.297327 47.5957 91.3328 0.0383895 0.0381242 0.998127
2.03157 47.5928 91.2116 0.0898844 0.0315232 0.995257
3.02205 47.5965 91.0736 0.140193 0.0371556 0.989427
4.11906 47.5975 90.9077 0.234513 0.0297469 0.970931
5.16222 47.5981 90.622 0.262601 0.0533198 0.963429
6.17595 47.5884 90.331 0.303545 0.0412945 0.951907
7.15252 47.5635 90.0154 0.308731 0.0434227 0.950158
8.09839 47.5435 89.6685 0.399571 0.0238937 0.915977
9.44414 47.5722 89.0409 0.445139 0.0246873 0.894654
10.3675 47.6317 88.5509 0.467781 0.0114649 0.88377
11.2792 47.6728 88.0674 0.500403 -0.00388194 0.864846
12.1277 47.6632 87.5127 0.56319 0.00852684 0.826283
13.5575 47.5849 86.4964 0.599573 -0.00983416 0.800259
14.5077 47.4661 85.7363 0.648973 0.0238767 0.760212
15.3246 47.1196 85.0219 0.662421 0.0211923 0.748824
16.2619 46.4143 84.1982 0.680123 0.0158843 0.732926
17.0237 45.6785 83.5073 0.680731 0.0122247 0.732422
17.64 44.8975 82.9112 0.704931 -0.000874939 0.709275
18.1454 43.9856 82.4079 0.705129 -0.00486461 0.709049
18.5453 42.786 81.9979 0.703794 -0.00709106 0.710369
18.6122 41.6375 81.9195 0.705253 -0.00527231 0.708932
18.4189 40.409 82.101 0.707678 -0.00748805 0.706496
17.9587 39.5825 82.5597 0.702909 -0.00506441 0.711225
17.3951 38.9524 83.0999 0.652384 0.0050909 0.757871
16.6807 38.5994 83.7172 0.643298 -0.0155719 0.765103
15.5231 38.4651 84.6704 0.643152 -0.0414146 0.764576
14.7364 38.4309 85.3372 0.623786 -0.0539769 0.779136
13.481 38.2889 86.2616 0.600886 -0.0677682 0.79633
12.4749 38.1396 86.9659 0.568993 -0.0924813 0.817125
11.3912 37.9712 87.6469 0.475431 -0.177851 0.861465
10.1813 37.7844 88.2916 0.483949 -0.187107 0.85486
9.18617 37.628 88.8153 0.479156 -0.189213 0.857093
7.70152 37.4566 89.4974 0.39205 -0.176011 0.902949
6.59114 37.3962 89.9447 0.324043 -0.308633 0.893838
5.54829 37.4232 90.289 0.28023 -0.107651 0.953877
4.38222 37.5066 90.6301 0.201133 -0.147388 0.965903
3.20343 37.6237 90.8333 0.147931 -0.192612 0.97006
2.14002 37.6344 91.1266 0.109202 -0.286639 0.93768
1.04772 37.7025 91.177 0.0553206 -0.430148 0.900545
-0.0848058 37.6914 91.236 0.0919286 -0.440137 0.89267
-1.17976 37.6063 91.1925 -0.0690819 -0.365178 0.928334
-2.40954 37.5024 91.0081 -0.234054 -0.348658 0.903797
-3.52434 37.558 90.6589 -0.303241 -0.287625 0.908464
-4.5654 37.5345 90.5146 -0.11998 -0.269531 0.954747
-5.97934 37.7096 90.2197 -0.337504 -0.275354 0.898517
-7.00994 37.8413 89.8411 -0.326528 -0.29769 0.896322
-8.20397 37.9025 89.3332 -0.428623 -0.219915 0.876305
-9.22859 37.8937 88.821 -0.424767 -0.209781 0.88051
-10.1465 37.8652 88.3601 -0.440867 -0.191849 0.876824
-11.0516 37.8518 87.8994 -0.446078 -0.196978 0.873033
-11.947 37.865 87.3334 -0.545013 -0.073811 0.835172
-12.8103 37.8688 86.7669 -0.595247 -0.0896096 0.797131
-13.6098 37.8742 86.1204 -0.626559 -0.117024 0.770537
-14.3997 37.8511 85.4724 -0.607382 -0.102725 0.787015
-15.1876 37.7602 84.8419 -0.613907 -0.0697831 0.786287
-16.0661 37.4903 84.1278 -0.645719 -0.0526649 0.761029
-16.7421 37.1535 83.4662 -0.685411 -0.0799974 0.723746
-17.7745 36.6412 82.4167 -0.690033 -0.0686229 0.720368
-18.2809 35.8905 81.887 -0.687428 -0.0175697 0.726034
-18.9161 35.1179 81.2578 -0.698817 -0.0217301 0.714969
-19.4737 34.1251 80.7033 -0.693306 0.0215835 0.720244
-19.9597 33.2288 80.2634 -0.684765 0.0192203 0.728511
-20.5871 31.919 79.691 -0.683192 0.0105506 0.730127
-21.0343 30.6127 79.3012 -0.671782 0.00879057 0.740697
-21.3293 29.6749 79.0435 -0.656377 -0.00495733 0.754412
-21.6767 28.5769 78.7325 -0.654924 -0.00684544 0.755663
-21.9899 27.5957 78.4494 -0.65219 -0.0127449 0.757943
-22.2701 26.6542 78.1954 -0.650253 -0.0117525 0.759627
-22.7897 25.0951 77.7215 -0.644136 -0.0174201 0.764712
-23.3455 24.3676 77.2296 -0.655942 -0.018081 0.754578
-23.9235 25.4859 76.7501 -0.656705 -0.00529559 0.75408
-23.9217 26.6556 76.7471 -0.66377 0.00526847 0.747884
-23.6714 28.27 76.9501 -0.664236 0.012256 0.747422
-23.3479 29.3498 77.2193 -0.664028 0.0114714 0.747619
-23.0196 30.3947 77.5033 -0.669151 0.00550549 0.743106
-22.5317 31.6525 77.9102 -0.67948 0.0380328 0.732528
-21.8781 32.7629 78.4913 -0.6818 0.0224558 0.731078
-21.1335 33.5995 79.1491 -0.687299 0.0441997 0.725024
-20.4194 34.3245 79.786 -0.688791 0.037255 0.724002
-19.86 35.0323 80.2879 -0.708404 0.0167943 0.704981
-19.277 35.8227 80.9049 -0.723345 -0.01176 0.690347
-18.3179 36.1429 81.8674 -0.68356 -0.0608473 0.72735
-18.2021 37.3558 82.0752 -0.689971 -0.0686466 0.720434
-17.7615 38.6264 82.6212 -0.704173 -0.0493526 0.708307
-17.4135 39.6062 83.0149 -0.687488 -0.043087 0.724881
-17.1274 40.5673 83.3523 -0.684741 -0.0450258 0.727379
-16.6813 42.3604 83.843 -0.685653 -0.0233503 0.727551
-16.5347 43.4445 84.0234 -0.686941 -0.0282278 0.726165
-16.4417 44.4368 84.15 -0.686904 -0.0282949 0.726197
-16.1987 45.3838 84.4149 -0.685414 -0.0277994 0.727622
-15.3363 46.6611 85.2549 -0.672217 -0.0149146 0.740161
-14.5489 47.2565 85.9484 -0.657532 -0.00408846 0.753416
-13.8102 47.5164 86.5904 -0.641527 0.0182531 0.766686
-12.9898 47.5945 87.1944 -0.574515 -0.0458502 0.817208
-12.1657 47.6039 87.7721 -0.556169 -0.0439829 0.829688
-11.2689 47.6379 88.3508 -0.530091 -0.0309588 0.84726
-11.1074 47.6356 88.4491 -0.496053 -0.0382464 0.866927
-11.1437 48.4128 88.4494 -0.52082 -0.0128858 0.853488
-12.3005 48.3743 87.7194 -0.557046 -0.0396777 0.829303
-13.1796 48.3709 87.0757 -0.62652 0.0217291 0.779093
-13.9889 48.3055 86.4221 -0.641527 0.0182531 0.766686
-14.7967 48.0302 85.7318 -0.654748 0.00581972 0.755805
-15.8992 47.1015 84.7399 -0.679237 -0.00881736 0.733866
-16.4418 46.4141 84.2228 -0.686342 -0.0177186 0.727026
-16.8461 45.5527 83.7956 -0.719848 -0.0250419 0.693669
-17.055 44.4364 83.561 -0.722154 -0.00698149 0.691697
-17.1188 43.2756 83.4643 -0.686941 -0.0282278 0.726165
-17.3357 42.0553 83.2167 -0.710429 -0.0255981 0.702378
-17.6005 41.0282 82.892 -0.735786 -0.0182977 0.676944
-17.9232 39.9507 82.5228 -0.733792 -0.0133231 0.679243
-18.2482 38.9341 82.1437 -0.734157 -0.0204636 0.678671
-18.5946 38.0768 81.7387 -0.733994 -0.0255002 0.678677
-19.3201 36.8715 80.8958 -0.734901 -0.0358828 0.677225
-19.8285 36.1152 80.3348 -0.722649 -0.0161419 0.69102
-20.6973 34.9543 79.4884 -0.689538 0.0373927 0.723284
-21.9081 33.8086 78.3982 -0.688524 0.0420863 0.723987
-22.5247 33.0551 77.8573 -0.694946 0.0586415 0.716642
-23.0735 32.0128 77.3966 -0.669782 0.0490628 0.740935
-23.6093 30.6485 76.9702 -0.666747 0.00829265 0.745222
-23.8985 29.7036 76.726 -0.663685 0.0102241 0.747943
-24.3176 28.0872 76.3787 -0.666995 0.00945761 0.744988
-24.4643 27.0222 76.2552 -0.668633 0.00663394 0.743562
-24.4879 25.6661 76.2469 -0.674457 -0.000296511 0.738243
-24.3048 24.4675 76.3934 -0.658469 -0.0209374 0.752316
-23.9818 23.4436 76.6505 -0.660733 -0.0116284 0.750531
-23.6756 22.3452 76.9003 -0.663255 -0.0192707 0.748117
-23.4223 22.1282 77.1166 -0.652894 -0.0215416 0.757139
-22.8105 23.3889 77.6717 -0.652753 -0.015409 0.757414
-22.3963 24.3691 78.0362 -0.645775 -0.012757 0.763401
-22.0439 25.3218 78.3549 -0.645884 -0.0200319 0.763165
-21.5778 26.8843 78.7921 -0.64781 -0.0151586 0.761637
-21.2751 27.8419 79.0719 -0.653252 -0.0149452 0.756993
-21.0001 28.8147 79.3213 -0.654389 -0.00752164 0.75612
-20.6647 29.9094 79.6226 -0.656241 -0.00209376 0.754548
-20.3221 30.9264 79.9236 -0.66041 -0.0066418 0.750846
-19.8816 32.0719 80.3519 -0.668693 -0.0303127 0.74292
-19.4406 32.9602 80.7587 -0.685249 0.0158676 0.728127
-18.7273 34.2767 81.4146 -0.693934 -0.00650719 0.719777
-18.1453 35.0786 81.9933 -0.68547 -0.0190912 0.727851
-17.3837 35.9111 82.7263 -0.670801 -0.0412695 0.740423
-16.5074 36.4626 83.6116 -0.685041 -0.081256 0.723955
-15.6829 36.8 84.3707 -0.618969 -0.0808492 0.781122
-14.7335 37.0354 85.1334 -0.617621 -0.0717026 0.78319
-13.9189 37.1123 85.7471 -0.607382 -0.102725 0.787015
-13.1121 37.1244 86.4063 -0.625508 -0.122319 0.770568
-12.2333 37.112 87.0002 -0.529454 -0.169708 0.83116
-11.3379 37.0956 87.5653 -0.524562 -0.1758 0.833021
-10.4346 37.0962 88.0442 -0.446078 -0.196978 0.873033
-8.63505 37.1507 88.9303 -0.424767 -0.209781 0.88051
-7.63381 37.128 89.4177 -0.362974 -0.252869 0.893541
-6.58691 37.0656 89.7396 -0.298893 -0.284462 0.910901
-5.61802 36.9136 90.0981 -0.280808 -0.378937 0.875296
-4.03398 36.7613 90.334 -0.129722 -0.33989 0.927726
-2.641 36.7617 90.6236 -0.18005 -0.412099 0.893168
-0.72204 36.9315 90.9612 0.017784 -0.393364 0.913612
0.280508 37.0249 90.875 0.116436 -0.422506 0.89885
1.63316 36.975 90.8031 -0.0159071 -0.460115 0.88766
2.78229 36.8627 90.7609 0.13834 -0.332869 0.912133
3.96307 36.7803 90.4926 0.181646 -0.361699 0.914417
5.11113 36.6945 90.1862 0.275301 -0.347404 0.895538
6.86156 36.6512 89.5894 0.324043 -0.308633 0.893838
8.21868 36.7453 89.0787 0.323269 -0.274325 0.9045
9.24833 36.8694 88.613 0.481776 -0.1781 0.857924
10.1949 37.0227 88.1171 0.481834 -0.188125 0.855827
11.7744 37.261 87.3031 0.466232 -0.168955 0.868379
12.8648 37.435 86.5857 0.545302 -0.110409 0.83037
13.8388 37.5784 85.9401 0.591765 -0.0735072 0.802749
14.8205 37.6746 85.2159 0.598802 -0.0741695 0.797454
15.5961 37.6946 84.5679 0.639702 -0.0421297 0.767456
17.1008 37.8947 83.3548 0.625626 -0.0370013 0.779176
17.7846 38.3217 82.7128 0.697297 -0.0115761 0.716683
18.6481 39.3753 81.87 0.707297 -0.00063475 0.706916
19.104 40.5142 81.415 0.707723 -0.00421223 0.706468
19.182 41.5692 81.3181 0.729362 0.0115549 0.68403
19.119 42.7183 81.3748 0.736022 -0.00443691 0.676943
18.7751 44.0832 81.7434 0.746864 0.00104227 0.664803
18.3473 45.022 82.2016 0.709961 0.00512016 0.704223
17.7552 45.8631 82.7918 0.710279 0.00237451 0.70391
17.0334 46.6487 83.4788 0.678631 0.0136641 0.734353
16.2283 47.3744 84.2094 0.679624 0.00847255 0.733492
15.4303 47.9587 84.9083 0.662919 0.0178201 0.748479
14.3038 48.2816 85.8712 0.635679 0.031652 0.771304
13.2157 48.3749 86.7618 0.61686 0.0115133 0.786395
12.3735 48.4218 87.337 0.563713 0.00975616 0.825913
11.5403 48.4479 87.9043 0.530235 0.0230644 0.846556
10.646 48.4202 88.3932 0.468121 0.0115795 0.883588
9.73883 48.353 88.8741 0.456841 0.0157627 0.889317
8.82131 48.3047 89.3107 0.421603 0.00294924 0.906776
7.64561 48.3181 89.83 0.328235 0.0259316 0.943955
6.66325 48.3493 90.1498 0.310052 0.0134968 0.950624
5.67207 48.3661 90.4599 0.277412 0.0186574 0.960507
4.66153 48.3661 90.7422 0.26898 0.0121291 0.963069
3.66156 48.365 90.9785 0.178799 0.019915 0.982867
2.46525 48.365 91.1494 0.12768 0.00827755 0.99168
0.871941 48.3626 91.2918 0.0646008 -0.00388379 0.997899
-0.359302 48.3732 91.3368 -0.00820466 -0.0203919 0.999758
-1.924 48.3906 91.2712 -0.103248 0.0133023 0.994419
-3.20617 48.4041 91.1187 -0.13955 0.0159843 0.989789
-4.89431 48.3769 90.7675 -0.233397 -0.0182784 0.97221
-5.87941 48.3585 90.5329 -0.255105 -0.0342989 0.965862
-6.84817 48.3523 90.2481 -0.281993 -0.0475367 0.958238
-7.80914 48.3602 89.925 -0.326508 -0.0229519 0.944916
-8.77221 48.3763 89.5905 -0.330994 -0.0229768 0.943349
-9.73652 48.3905 89.1932 -0.416772 -0.0122718 0.908252
-10.7195 48.4077 88.7029 -0.459809 -0.0407362 0.886894
-10.7817 48.4076 88.6694 -0.496053 -0.0382464 0.866927
-10.4858 49.1599 88.8462 -0.481905 -0.0135734 0.875031
-11.3815 49.163 88.3048 -0.521991 -0.00115395 0.85295
-12.326 49.1478 87.726 -0.543785 0.0148085 0.838638
-13.1364 49.1472 87.0874 -0.626907 0.00142197 0.778785
-14.3326 49.0612 86.1213 -0.641045 0.0134396 0.767217
-15.0865 48.7859 85.472 -0.663016 0.0147154 0.748453
-15.979 48.0234 84.666 -0.686041 0.00123696 0.727558
-16.6012 47.3643 84.0811 -0.687904 -0.000691189 0.725793
-17.3839 45.9131 83.2504 -0.729005 -0.0126705 0.684391
-17.6213 44.5051 82.9714 -0.721819 -0.00624815 0.692053
-17.6749 43.3109 82.8849 -0.745747 -0.0155986 0.666018
-17.8583 42.3098 82.6583 -0.735961 -0.026836 0.676491
-18.2676 40.751 82.1664 -0.734334 -0.0135362 0.678654
-18.5961 39.7142 81.7899 -0.734759 -0.0140687 0.678182
-18.9672 38.8143 81.3621 -0.7358 -0.0220369 0.676834
-19.3763 38.03 80.8879 -0.737217 -0.0237487 0.675239
-19.8794 37.2289 80.3129 -0.754628 -0.00447381 0.654256
-20.4491 36.2596 79.6068 -0.786065 0.0124673 0.618016
-21.1075 35.4573 79.0222 -0.707933 0.140571 0.692148
-22.2462 34.4744 78.0191 -0.716867 0.104546 0.689319
-22.846 33.7744 77.4869 -0.694946 0.0586415 0.716642
-23.4166 32.7985 77.0348 -0.667383 0.0590382 0.742289
-24.0199 31.3709 76.585 -0.667141 0.0467576 0.743462
-24.4476 30.033 76.2345 -0.665733 0.0110539 0.746101
-24.8067 28.6707 75.9333 -0.664395 0.011321 0.747294
-24.969 27.6782 75.7952 -0.669258 0.00604335 0.743006
-25.0692 26.3941 75.716 -0.674615 -0.000405953 0.7381
-25.0171 25.0845 75.7504 -0.679962 -0.00804667 0.733203
-24.6609 23.5134 76.0542 -0.668644 -0.0171921 0.743238
-24.2651 22.1154 76.3657 -0.667133 -0.0237615 0.744559
-23.9264 20.8573 76.6271 -0.667405 -0.0258672 0.744246
-23.8172 19.4644 76.6925 -0.672921 -0.013239 0.739596
-23.7002 17.8246 76.7581 -0.665128 -0.0241878 0.746237
-23.8521 16.8068 76.5843 -0.656341 -0.0377109 0.75349
-24.1719 15.9069 76.273 -0.674709 -0.0173776 0.737879
-24.7361 14.2049 75.706 -0.67703 -0.0252846 0.735521
-24.9088 13.1656 75.5115 -0.669636 -0.0179864 0.742455
-24.6778 11.8517 75.684 -0.672522 -0.0211642 0.739774
-23.9414 10.8214 76.3256 -0.66127 -0.0184615 0.749921
-23.2571 10.3875 76.918 -0.655752 -0.0131795 0.754808
-22.3393 11.6418 77.7028 -0.616748 -0.0155471 0.786928
-21.7934 12.8437 78.1536 -0.608642 -0.0251763 0.793046
-21.7532 14.0814 78.2314 -0.62966 -0.0294417 0.77623
-22.0691 15.4558 78.0134 -0.637862 -0.0243488 0.769765
-22.4094 16.3789 77.7979 -0.631528 -0.0546095 0.773426
-22.754 17.7062 77.5763 -0.650068 -0.0202374 0.759525
-23.0646 18.9528 77.3345 -0.643198 -0.0171127 0.765492
-22.944 20.5523 77.4807 -0.644144 -0.0248623 0.764488
-22.7296 21.782 77.7042 -0.65124 -0.021961 0.758529
-22.378 22.7233 78.031 -0.652752 -0.0171982 0.757374
-22.019 23.6118 78.3482 -0.646235 -0.00822026 0.763094
-21.6164 24.6299 78.6995 -0.645316 -0.0125182 0.763797
-21.2368 25.6909 79.0494 -0.641537 -0.0260078 0.766644
-20.9005 26.9155 79.3723 -0.647952 -0.0228247 0.761335
-20.6041 28.0396 79.6551 -0.649629 -0.0182022 0.760011
-20.2972 29.1397 79.9351 -0.655857 -0.0083784 0.754839
-19.966 30.1391 80.2302 -0.660052 -0.00575094 0.751167
-19.6207 31.1172 80.5503 -0.662893 -0.00910254 0.748655
-19.1733 32.1306 80.9873 -0.662229 -0.00989383 0.749218
-18.6859 33.0627 81.4271 -0.656794 -0.0182089 0.753839
-18.2268 33.84 81.8613 -0.662647 -0.0522458 0.747076
-17.7113 34.535 82.3668 -0.665554 -0.0363298 0.745461
-17.0394 35.2184 83.0021 -0.676088 -0.0460015 0.735379
-16.1824 35.7879 83.8493 -0.659181 -0.077511 0.746697
-15.4279 36.0901 84.4943 -0.62615 -0.0879804 0.774723
-14.2587 36.3116 85.4187 -0.588013 -0.0805905 0.804826
-13.4059 36.3631 86.0454 -0.606647 -0.10153 0.787717
-12.5365 36.3621 86.6587 -0.523748 -0.167647 0.835212
-11.6267 36.3396 87.2229 -0.523455 -0.172981 0.834298
-10.7172 36.3266 87.724 -0.451495 -0.198492 0.869912
-9.74305 36.3391 88.2273 -0.427207 -0.198898 0.88182
-8.0879 36.3959 89.0084 -0.421344 -0.214524 0.881061
-7.03024 36.3613 89.3745 -0.296248 -0.284534 0.911743
-5.9262 36.2488 89.7032 -0.339358 -0.310304 0.886426
-4.86479 36.1071 89.9033 -0.213115 -0.243985 0.946065
-3.8318 35.9935 90.1119 -0.185358 -0.258806 0.947294
-2.48206 36.0172 90.3405 -0.157444 -0.276123 0.948139
-1.30045 36.1699 90.6183 -0.127389 -0.385603 0.911898
-0.0769352 36.3054 90.5832 0.114583 -0.424477 0.898154
0.991647 36.3329 90.4722 0.0724981 -0.306805 0.94876
2.31204 36.193 90.4634 -0.0391748 -0.375132 0.926128
3.50856 36.0652 90.3041 0.1609 -0.381881 0.909383
4.91716 35.9743 89.9452 0.239895 -0.36876 0.89802
6.24013 35.8929 89.5278 0.281693 -0.32554 0.902384
7.51512 35.9366 89.0871 0.324701 -0.270399 0.905168
8.75953 36.0253 88.7159 0.291522 -0.241512 0.92557
9.99947 36.2159 88.0599 0.479129 -0.161321 0.862727
11.1315 36.4064 87.4818 0.466954 -0.162755 0.869148
12.2669 36.5707 86.8604 0.543079 -0.112978 0.831414
13.243 36.7277 86.2731 0.52693 -0.0935826 0.84474
14.1959 36.8688 85.6099 0.590026 -0.0719678 0.804156
15.0575 36.9342 84.9678 0.620246 -0.0644636 0.781254
15.9868 36.9424 84.1978 0.637051 -0.0486564 0.769283
16.8179 36.9781 83.5261 0.626795 -0.0460485 0.777819
17.666 37.2975 82.8148 0.696035 -0.00826161 0.717958
18.5504 38.1038 81.9625 0.697092 -0.00718026 0.716943
19.1649 38.8835 81.352 0.707652 -0.000825786 0.706561
19.7111 40.6227 80.7742 0.727056 0.015263 0.686406
19.7455 41.637 80.7158 0.729231 0.015047 0.684102
19.6751 42.7275 80.7659 0.761618 0.00800281 0.647564
19.3517 44.2006 81.0976 0.747052 0.0149137 0.664599
18.9852 45.1915 81.5267 0.750975 -0.0123769 0.660215
18.4695 46.0296 82.0705 0.71027 0.00229991 0.703918
17.7966 46.8555 82.7511 0.710527 -0.000294009 0.703669
16.9964 47.63 83.4946 0.680691 0.00892176 0.73249
16.2827 48.2561 84.1549 0.669827 0.00785195 0.742321
15.6208 48.7485 84.7272 0.658692 0.0123151 0.752311
14.7599 49.0237 85.4764 0.649821 -0.00370676 0.759985
13.6532 49.1136 86.4072 0.641977 -0.0123938 0.766623
12.7033 49.1695 87.1012 0.572114 0.0199522 0.819931
11.7821 49.217 87.7314 0.532252 0.0245669 0.845295
10.904 49.2091 88.2371 0.497707 0.036351 0.866583
10.0109 49.1415 88.7202 0.457857 0.0160445 0.888795
9.11521 49.0699 89.1688 0.446248 0.0195694 0.894695
8.13172 49.0667 89.6197 0.347096 0.0377297 0.93707
7.1562 49.1065 89.9784 0.327365 0.0259945 0.944277
6.16818 49.1352 90.2925 0.28727 0.0234195 0.957563
5.18617 49.1371 90.5858 0.277525 0.0175973 0.960502
4.2022 49.1308 90.8286 0.212655 0.0412234 0.976257
2.87731 49.1321 91.0897 0.128385 0.00834395 0.991589
1.40757 49.1331 91.2576 0.0883908 0.00776089 0.995779
0.0672836 49.1354 91.3301 0.0442812 0.00773053 0.998983
-1.40322 49.1516 91.2998 -0.0884951 0.0239381 0.995789
-2.76239 49.1737 91.1671 -0.137329 0.0178706 0.990104
-4.33383 49.1575 90.914 -0.197228 0.0069621 0.97942
-5.67623 49.1262 90.5967 -0.230663 -0.0197847 0.972833
-7.25241 49.1145 90.1354 -0.326427 -0.0221719 0.944962
-8.24022 49.1268 89.7925 -0.328739 -0.0210552 0.944186
-9.23672 49.1427 89.3929 -0.390226 0.0166498 0.920569
-10.2616 49.1558 88.9581 -0.418665 -0.00743907 0.90725
-10.1234 49.9111 89.0074 -0.42377 0.0300417 0.904259
-9.11528 49.9012 89.4344 -0.390049 0.00961168 0.920744
-8.11853 49.885 89.8289 -0.339234 0.0307176 0.940118
-7.15059 49.8751 90.1664 -0.328048 0.0242145 0.94435
-5.67653 49.8883 90.5757 -0.232682 0.065348 0.970355
-4.23799 49.9284 90.9094 -0.191084 0.0454282 0.979817
-3.22053 49.952 91.0744 -0.1586 0.0236949 0.987056
-1.90629 49.9306 91.2382 -0.0884459 0.0198876 0.995882
-0.4985 49.9066 91.3377 0.00610653 0.0476154 0.998123
0.990479 49.8994 91.2691 0.0542513 0.0395632 0.997729
2.3357 49.8995 91.1395 0.115222 0.0199901 0.993138
3.76985 49.8935 90.8975 0.213274 0.0246155 0.976682
5.10467 49.9069 90.5972 0.260443 0.0212545 0.964735
6.66127 49.9041 90.1277 0.306826 0.0152609 0.951425
7.6147 49.8538 89.7794 0.346019 0.0261182 0.937786
8.62917 49.8155 89.3949 0.433922 0.0113937 0.900737
9.89938 49.8974 88.7587 0.447403 0.0143322 0.894196
11.0358 49.9921 88.1332 0.498434 0.00152742 0.866926
11.9541 49.9809 87.6004 0.51795 0.0164528 0.854905
12.8311 49.9228 86.9937 0.572209 0.0199673 0.819865
14.0681 49.8656 86.0703 0.64785 -0.00204987 0.761683
14.9781 49.8195 85.2816 0.656008 0.00516542 0.754736
15.8039 49.5598 84.5584 0.660196 0.00375036 0.751084
16.9461 48.59 83.5371 0.680579 0.00368218 0.732665
17.7151 47.9148 82.8233 0.680691 0.00892176 0.73249
18.4495 47.1594 82.0832 0.728398 0.0214481 0.684818
19.0058 46.4137 81.5171 0.744126 0.0153551 0.667382
19.5112 45.4984 80.9303 0.762145 0.00275313 0.647398
19.8718 44.5355 80.5051 0.749455 0.00149388 0.661904
20.1628 42.8955 80.165 0.777229 0.00363673 0.629203
20.2826 41.7593 80.1029 0.773977 0.0534215 0.630956
20.2846 40.7341 80.1546 0.733955 0.0160019 0.679002
20.1587 39.665 80.3191 0.729827 0.0175526 0.683404
19.7745 38.567 80.7402 0.708143 0.00247254 0.706054
19.157 37.7226 81.365 0.707058 0.00533424 0.707136
18.4943 37.0166 82.007 0.695021 -0.00729226 0.718951
17.2961 36.2629 83.066 0.645582 -0.0596525 0.761358
16.3771 36.1558 83.8309 0.630322 -0.0478177 0.774854
15.485 36.1659 84.5635 0.633383 -0.0516257 0.772099
14.6143 36.1523 85.2359 0.596894 -0.0570838 0.800227
13.6153 36.0377 85.9615 0.590026 -0.0719678 0.804156
12.6652 35.8617 86.5303 0.519915 -0.112323 0.846801
11.6695 35.7161 87.0693 0.456893 -0.146139 0.877292
10.5446 35.5431 87.6432 0.468214 -0.155695 0.86979
9.25386 35.3073 88.2969 0.472943 -0.168227 0.864737
8.09469 35.2249 88.7231 0.312854 -0.179293 0.932725
6.89189 35.1327 89.1019 0.313342 -0.195255 0.929159
5.67002 35.1412 89.5211 0.241817 -0.204921 0.94716
4.34659 35.2519 89.8216 0.17195 -0.253233 0.951505
3.34872 35.3518 90.0068 0.138269 -0.407339 0.902737
1.85207 35.5261 90.1694 0.00335964 -0.339794 0.9385
0.802314 35.6021 90.2503 0.0724981 -0.306805 0.94876
-0.624565 35.5128 90.354 0.065792 -0.331538 0.940786
-1.72192 35.3473 90.2718 -0.112197 -0.317558 0.939523
-2.93122 35.193 90.0259 -0.15455 -0.27456 0.949062
-3.97986 35.2202 89.8653 -0.153104 -0.272626 0.94986
-5.1477 35.3884 89.6543 -0.213115 -0.243985 0.946065
-6.13208 35.5268 89.476 -0.255551 -0.219886 0.939825
-7.13462 35.6094 89.1697 -0.300807 -0.192419 0.93407
-8.16907 35.6384 88.8272 -0.366562 -0.180947 0.910985
-9.19716 35.5648 88.3388 -0.414966 -0.157992 0.896014
-10.1067 35.5494 87.8764 -0.451812 -0.179134 0.873943
-11.0339 35.5577 87.3961 -0.447872 -0.169828 0.877717
-11.9575 35.5857 86.8865 -0.526235 -0.127046 0.840795
-12.8618 35.6028 86.322 -0.531342 -0.130263 0.837061
-13.7385 35.5835 85.7125 -0.582101 -0.113945 0.805093
-14.5843 35.4924 85.0878 -0.582219 -0.112546 0.805204
-15.3585 35.3093 84.4597 -0.624072 -0.0947565 0.7756
-16.1501 34.9608 83.7797 -0.624662 -0.0945213 0.775153
-16.912 34.3935 83.0677 -0.668168 -0.0413476 0.742798
-17.7718 33.3129 82.2271 -0.661253 -0.0619223 0.747602
-18.4005 32.2323 81.6394 -0.634269 -0.028426 0.77258
-18.901 31.2532 81.195 -0.650647 -0.0284561 0.758559
-19.2559 30.3785 80.8641 -0.647695 -0.0244409 0.761127
-19.6134 29.3401 80.5212 -0.63535 -0.0238775 0.771841
-19.9305 28.249 80.2212 -0.6385 -0.0258945 0.769186
-20.2127 27.1212 79.9595 -0.637609 -0.0181208 0.770146
-20.6684 25.4218 79.5164 -0.646569 -0.0301828 0.762258
-21.1328 24.0811 79.0968 -0.639398 -0.0110436 0.768796
-21.53 23.1246 78.751 -0.640673 -0.0121049 0.767718
-21.9061 22.1631 78.4159 -0.643831 -0.0218859 0.764838
-22.2021 21.1466 78.1314 -0.646706 -0.025218 0.762322
-22.355 20.1049 77.9642 -0.646546 -0.0285566 0.76234
-22.2536 18.2938 78.0073 -0.64362 -0.0111523 0.765263
-21.8117 16.6491 78.3035 -0.617395 -0.0342574 0.785906
-21.3507 15.2307 78.6015 -0.629748 -0.0294667 0.776156
-21.0691 13.8561 78.7649 -0.621631 -0.0343208 0.782558
-21.2064 12.5282 78.5938 -0.61473 -0.0310431 0.788061
-21.895 11.1431 78.0391 -0.609619 -0.00850594 0.792649
-22.3797 10.3549 77.6338 -0.623866 -0.0223412 0.781212
-23.206 9.22769 76.9191 -0.641357 -0.0379375 0.766304
-23.922 9.7606 76.3141 -0.660672 -0.0261406 0.750219
-24.7129 10.7091 75.631 -0.673721 -0.0109722 0.738904
-25.229 11.4748 75.172 -0.673147 -0.0162053 0.739314
-25.5056 12.7624 74.9557 -0.674537 -0.0201203 0.737967
-25.4045 13.9249 75.0811 -0.675703 -0.0232662 0.736802
-25.1036 14.9419 75.393 -0.677238 -0.0231904 0.735396
-24.5979 16.4729 75.8967 -0.674795 -0.0173378 0.737802
-24.3191 17.6269 76.1856 -0.675088 -0.0232057 0.737372
-24.3664 19.0172 76.182 -0.675587 -0.0199415 0.73701
-24.4759 20.356 76.1165 -0.667531 -0.0260309 0.744127
-24.707 21.452 75.9476 -0.66741 -0.0255085 0.744253
-24.9824 22.4686 75.7316 -0.67278 -0.022161 0.73951
-25.3183 23.5958 75.4514 -0.676491 -0.00781925 0.736409
-25.5894 24.8156 75.2163 -0.679804 -0.010084 0.733322
-25.6414 25.8872 75.1803 -0.679958 -0.00811294 0.733206
-25.6135 27.0594 75.2189 -0.674895 -0.000865527 0.737848
-25.4944 28.1597 75.3171 -0.670048 0.00627293 0.742291
-25.3008 29.2329 75.4835 -0.668246 0.00814176 0.743889
-25.0289 30.2994 75.7084 -0.667383 0.0130489 0.7446
-24.4619 31.9366 76.1527 -0.66725 0.047683 0.743305
-24.0876 32.8434 76.4264 -0.666987 0.0694978 0.741821
-23.5194 33.9592 76.8394 -0.679151 0.0630865 0.731269
-22.83 34.8577 77.3572 -0.689571 0.0980188 0.716464
-22.1849 35.38 77.9455 -0.716867 0.104546 0.689319
-21.5034 35.925 78.5235 -0.701635 0.143693 0.697898
-20.6917 37.0105 79.2864 -0.785002 0.013845 0.619327
-20.175 37.9187 79.9207 -0.788338 0.0115819 0.615112
-19.7477 38.6675 80.4625 -0.789367 0.00981729 0.613838
-19.337 39.4946 80.9764 -0.77425 -0.00439975 0.632584
-18.9588 40.4335 81.4119 -0.734759 -0.0140687 0.678182
-18.6202 41.5328 81.8005 -0.734334 -0.0135362 0.678654
-18.3716 42.5733 82.0949 -0.746179 -0.00979568 0.665673
-18.2082 43.5732 82.2944 -0.748081 -0.0201332 0.663302
-18.1637 44.9251 82.3849 -0.750486 -0.015446 0.660681
-17.9892 46.0874 82.6086 -0.729159 -0.0126653 0.684227
-17.5635 47.0985 83.0829 -0.730507 -0.0173813 0.682684
-17.0422 47.9168 83.661 -0.709042 -0.00700701 0.704409
-16.0788 48.8877 84.5731 -0.686365 -0.00104831 0.727256
-15.3371 49.5449 85.2349 -0.665502 0.0125089 0.746291
-14.0448 49.8752 86.3624 -0.644733 -0.00440266 0.764124
-13.0135 49.9232 87.2072 -0.630974 -0.0192704 0.775564
-12.0259 49.9112 87.9071 -0.543785 0.0148085 0.838638
-11.0848 49.9103 88.4841 -0.519512 0.00161554 0.854452
-10.7651 49.9095 88.6768 -0.48688 0.0253343 0.872089
-10.708 50.6621 88.661 -0.457811 0.0555059 0.887315
-9.70314 50.6658 89.1771 -0.422413 0.0339261 0.904744
-8.67301 50.6557 89.5914 -0.349202 0.037335 0.936303
-7.67328 50.6404 89.965 -0.338989 0.0303172 0.940211
-6.69902 50.6369 90.2706 -0.241606 0.0717293 0.96772
-5.72001 50.6497 90.5137 -0.236722 0.06888 0.969118
-4.71952 50.6763 90.7479 -0.221671 0.0703873 0.972578
-3.67135 50.7131 90.9813 -0.18808 0.0494045 0.980229
-2.5252 50.7272 91.1405 -0.114763 0.0451513 0.992364
-1.14701 50.6822 91.2673 -0.046572 0.0754676 0.9959
0.493802 50.6629 91.2645 0.0524776 0.0435974 0.997657
1.76192 50.6671 91.1902 0.0865235 0.0321783 0.995252
3.34658 50.6565 90.9554 0.170174 0.0502852 0.984129
4.60551 50.6625 90.689 0.232005 0.0370231 0.972009
6.204 50.6908 90.2623 0.305022 0.0160249 0.951971
7.95326 50.6041 89.6415 0.348981 0.0148932 0.937011
9.21358 50.5936 89.0951 0.446624 0.00813763 0.894685
10.511 50.7488 88.4307 0.461657 0.0183417 0.886867
11.4448 50.7672 87.8917 0.533496 0.0342586 0.845108
12.3203 50.7216 87.3376 0.572819 0.0123225 0.819589
13.3621 50.6598 86.6104 0.581064 0.0222449 0.813428
14.4416 50.6377 85.7406 0.65207 0.0105833 0.758085
15.2718 50.6245 85.0206 0.658048 0.00468282 0.752956
16.1873 50.2 84.2146 0.665014 0.00949446 0.746771
16.9332 49.4998 83.5343 0.68875 0.00629791 0.72492
17.7757 48.8081 82.7475 0.710229 0.0204008 0.703011
18.6634 47.9427 81.8307 0.729336 0.0273834 0.683607
19.2638 47.1612 81.2065 0.759846 0.00690084 0.650066
19.8044 46.2604 80.5813 0.762926 0.00163643 0.646484
20.19 45.3683 80.1302 0.774037 -0.00196312 0.632852
20.5112 44.0853 79.7209 0.78391 0.00671274 0.620839
20.6742 42.8703 79.5279 0.776961 0.0289563 0.628375
20.791 41.5624 79.4855 0.78734 0.0454045 0.614845
20.7665 40.1764 79.5929 0.782931 0.0108233 0.621794
20.5981 39.0042 79.7996 0.774384 -0.000865279 0.632715
20.3117 38.1197 80.1653 0.758232 0.00352643 0.651455
19.7645 37.3299 80.7606 0.724502 -0.0041806 0.68873
18.9454 36.4577 81.5648 0.694649 0.0072329 0.719179
18.2575 35.836 82.2423 0.66938 0.0014074 0.742069
16.9481 35.382 83.332 0.640847 -0.0146088 0.767529
15.902 35.391 84.1686 0.632289 -0.0539988 0.772848
14.8404 35.4284 85.0092 0.582743 -0.0855243 0.808141
14.009 35.3496 85.6026 0.584472 -0.0866611 0.806773
13.0616 35.1672 86.1938 0.524279 -0.110226 0.844382
12.1092 35.0011 86.737 0.449331 -0.138739 0.882516
11.0508 34.8657 87.2502 0.457021 -0.145756 0.877286
10.0631 34.6695 87.7496 0.466355 -0.170966 0.867738
9.07531 34.4889 88.2291 0.398678 -0.19763 0.893413
8.12258 34.4516 88.5651 0.312854 -0.179293 0.932725
6.80604 34.3718 88.9791 0.300611 -0.184065 0.935815
5.24529 34.4291 89.4391 0.178068 -0.250715 0.950959
4.03099 34.5159 89.6584 0.13062 -0.271213 0.953398
2.59427 34.6893 89.863 0.107658 -0.260414 0.959383
1.48509 34.8083 89.9605 0.0509593 -0.302898 0.951659
0.119635 34.8419 90.0641 0.0707835 -0.330407 0.940808
-0.936835 34.75 90.0854 0.0176994 -0.365501 0.929947
-2.43845 34.4551 89.8931 -0.105227 -0.31231 0.941957
-3.45033 34.4024 89.7213 -0.147494 -0.211744 0.966129
-4.47532 34.5126 89.582 -0.153824 -0.241351 0.95762
-5.74684 34.7127 89.3576 -0.206015 -0.232609 0.9505
-6.97201 34.8445 89.0634 -0.308403 -0.200087 0.929898
-7.96077 34.8517 88.7247 -0.320509 -0.207469 0.924243
-9.15424 34.77 88.1981 -0.43168 -0.181554 0.883487
-10.4418 34.7695 87.543 -0.44478 -0.173512 0.878609
-11.4148 34.8039 87.0669 -0.440099 -0.168457 0.882003
-12.3196 34.8331 86.5458 -0.52984 -0.13086 0.837923
-13.2036 34.8363 85.9798 -0.53668 -0.134329 0.833022
-14.0601 34.7901 85.3682 -0.581408 -0.114534 0.80551
-14.9908 34.6101 84.6703 -0.603925 -0.105477 0.789573
-15.839 34.2495 83.9436 -0.624732 -0.0946818 0.775077
-16.6338 33.6714 83.2429 -0.631245 -0.0791445 0.771462
-17.5342 32.4552 82.356 -0.639295 -0.0625377 0.766077
-18.1356 31.3606 81.8207 -0.626508 -0.0326923 0.778729
-18.569 30.4284 81.4308 -0.63046 -0.0384221 0.775251
-18.9176 29.4896 81.0948 -0.634283 -0.040997 0.772013
-19.2629 28.4336 80.7805 -0.634071 -0.0266587 0.772808
-19.5658 27.2293 80.4973 -0.6362 -0.0162582 0.771351
-19.8417 26.0907 80.2313 -0.599662 -0.046074 0.798889
-20.1322 25.0532 79.956 -0.645204 -0.0274298 0.763509
-20.5476 23.818 79.5775 -0.637018 -0.0110471 0.77077
-20.9332 22.8612 79.2437 -0.639331 -0.0158231 0.768761
-21.4871 21.3513 78.7442 -0.643066 -0.022708 0.765457
-21.7247 20.2278 78.5015 -0.625394 -0.0426047 0.779145
-21.6775 18.8121 78.477 -0.625203 -0.0200951 0.780189
-21.4936 17.6536 78.595 -0.613079 -0.0245555 0.789624
-21.1582 16.6781 78.8172 -0.61033 -0.0330642 0.791415
-20.5843 14.9232 79.1924 -0.603673 -0.0221566 0.796924
-20.4095 13.8007 79.286 -0.621274 -0.0356225 0.782783
-20.495 12.6758 79.1632 -0.615836 -0.0406581 0.786825
-20.7859 11.747 78.8983 -0.611666 -0.0106238 0.791036
-21.421 10.7028 78.3992 -0.609548 -0.00824694 0.792706
-21.9765 9.76949 77.9406 -0.623582 -0.0193397 0.781519
-22.6075 8.48116 77.3819 -0.641837 -0.0247631 0.766305
-23.0487 7.5768 76.9974 -0.644229 -0.0110807 0.764752
-23.6907 8.19991 76.464 -0.654976 -0.0166336 0.75544
-24.1636 9.0553 76.0769 -0.659175 -0.0253637 0.751562
-24.8098 9.85977 75.5255 -0.682898 -0.0149284 0.73034
-25.4396 10.5855 74.9577 -0.68227 -0.0205762 0.73081
-26.0684 12.0669 74.4206 -0.679149 -0.0251638 0.733569
-26.1344 13.0794 74.3894 -0.674604 -0.0209412 0.737882
-25.8428 14.5739 74.6999 -0.675737 -0.0235017 0.736764
-25.4423 15.7108 75.103 -0.677529 -0.0210419 0.735195
-25.0757 16.9887 75.4741 -0.674598 -0.0216401 0.737868
-24.9025 18.5066 75.6767 -0.675267 -0.0209192 0.737276
-24.9492 19.5193 75.6619 -0.674246 -0.0224673 0.73816
-25.1437 20.7255 75.5274 -0.673341 -0.0262974 0.738864
-25.4769 22.0206 75.2682 -0.673224 -0.0236661 0.739058
-25.7777 22.9715 75.0225 -0.674893 -0.0147221 0.737731
-26.0404 23.9115 74.7889 -0.684105 -0.00447737 0.72937
-26.2115 25.4198 74.646 -0.68151 -0.0101893 0.731733
-26.2075 26.6109 74.6636 -0.679704 -0.00894128 0.733431
-26.1421 27.6843 74.7361 -0.674904 -0.000716841 0.737845
-25.9886 28.83 74.8676 -0.668957 0.0042296 0.743288
-25.756 29.9928 75.0625 -0.668303 0.013041 0.743773
-25.4715 31.0114 75.2961 -0.667949 0.0162258 0.74403
-25.116 31.9419 75.5652 -0.66725 0.047683 0.743305
-24.4695 33.4802 76.0234 -0.662513 0.0656594 0.746131
-24.0347 34.3628 76.3311 -0.656735 0.074837 0.750287
-23.5507 35.1837 76.6437 -0.64755 0.094051 0.756196
-22.8789 35.7141 77.1699 -0.693967 0.117454 0.709648
-22.0342 36.275 77.9178 -0.701598 0.143744 0.697924
-21.3333 36.9642 78.4731 -0.744434 0.0903853 0.655241
-20.5558 38.4948 79.4238 -0.787728 0.00984443 0.615934
-20.0968 39.2727 80.0121 -0.785541 -0.0157968 0.618608
-19.6934 40.1029 80.5444 -0.77425 -0.00439975 0.632584
-19.3473 41.0213 80.9419 -0.766422 0.00959803 0.642265
-19.0854 41.9318 81.269 -0.758811 -0.0151776 0.651121
-18.8205 43.1836 81.6001 -0.751906 -0.011241 0.659126
-18.7356 44.5869 81.7233 -0.75394 -0.0119321 0.656835
-18.6964 45.6243 81.7891 -0.755048 -0.0207792 0.655341
-18.3325 46.8941 82.2457 -0.756702 -0.0134066 0.653597
-17.9257 47.7641 82.7008 -0.741785 0.00135794 0.670636
-17.2605 48.7067 83.4457 -0.720624 -0.00696828 0.692222
-16.2176 49.7308 84.4416 -0.695132 0.000310379 0.718819
-15.5936 50.3372 84.9937 -0.66538 0.0118637 0.74641
-14.5972 50.6326 85.8749 -0.658821 0.00977464 0.75221
-13.5576 50.6771 86.7834 -0.647126 -0.0111684 0.761978
-12.6279 50.6799 87.4696 -0.564799 0.0274569 0.824771
-11.6796 50.6652 88.1135 -0.540723 0.0200404 0.84061
-11.2095 50.6624 88.402 -0.490574 0.0319421 0.86971
-11.2801 51.4175 88.3269 -0.476571 0.0434117 0.877682
-10.2669 51.4187 88.8489 -0.456339 0.0282728 0.889355
-9.23538 51.4224 89.3544 -0.373863 0.0436104 0.925873
-8.19838 51.4128 89.7415 -0.349605 0.0239299 0.936591
-7.20601 51.4014 90.0899 -0.251275 0.0640563 0.965717
-6.21148 51.4037 90.3375 -0.240541 0.05829 0.968887
-5.1998 51.4225 90.5805 -0.211753 0.0860042 0.973447
-4.13844 51.453 90.8186 -0.215425 0.095146 0.971873
-2.99732 51.5214 91.03 -0.116555 0.118307 0.986019
-1.97131 51.4771 91.1455 -0.086294 0.101877 0.990808
-0.932091 51.4374 91.2145 -0.0380938 0.108372 0.993341
0.106292 51.4233 91.2382 0.038406 0.138927 0.989367
1.11803 51.4249 91.1797 0.0591732 0.13405 0.989206
2.13019 51.4283 91.1124 0.128642 0.134613 0.981522
3.11874 51.4188 90.9446 0.168552 0.11218 0.979286
4.86448 51.4285 90.5895 0.229513 0.0910497 0.969036
5.96476 51.4488 90.3193 0.292481 0.082326 0.951972
7.56255 51.4556 89.7743 0.342928 0.0550562 0.937519
8.83061 51.3719 89.2527 0.392518 0.0314761 0.919202
9.93117 51.4735 88.7174 0.457744 0.017995 0.888881
10.825 51.5244 88.2495 0.477825 0.0374952 0.877339
11.7262 51.5347 87.6834 0.533392 0.0243138 0.845518
12.7847 51.4734 86.9957 0.572642 0.0222468 0.8195
13.7149 51.4116 86.327 0.59478 0.0252238 0.803467
14.5365 51.4174 85.6488 0.651471 0.0109179 0.758594
15.4249 51.4505 84.8821 0.65946 0.00359155 0.751685
16.1556 51.2356 84.2309 0.670868 0.000629165 0.741542
16.8377 50.5651 83.6266 0.685114 0.00808023 0.728099
17.6744 49.7563 82.8232 0.709589 0.0191733 0.703813
18.3775 49.2074 82.0894 0.732386 0.0201453 0.680588
19.0544 48.5658 81.3879 0.729286 0.0282379 0.683626
19.7949 47.5089 80.5817 0.761383 0.00912023 0.648238
20.2922 46.6891 80.0055 0.776652 0.000327465 0.629535
20.6765 45.678 79.5167 0.785989 -0.000367486 0.61819
21.0381 44.0154 79.0556 0.78461 0.00696682 0.61995
21.2617 42.115 78.8457 0.777117 0.0332643 0.62847
21.3026 41.0401 78.8711 0.787547 0.0336097 0.615211
21.2335 39.9562 78.9978 0.789928 0.0199932 0.612872
21.1505 38.909 79.1232 0.773119 0.00883774 0.634135
20.8434 37.8333 79.5271 0.772536 0.0193372 0.634677
20.3162 36.8942 80.1401 0.745467 -0.0109432 0.666451
19.7277 36.2358 80.812 0.718393 0.0322207 0.694272
19.0131 35.4912 81.5273 0.692538 0.0208666 0.72108
18.2426 34.9334 82.2334 0.646999 -0.0179626 0.762279
17.3426 34.6057 82.9902 0.643624 -0.0155072 0.765163
16.3122 34.5876 83.7985 0.610343 -0.0366915 0.791287
15.4204 34.6743 84.5137 0.607313 -0.0666993 0.790903
14.3883 34.669 85.2549 0.582414 -0.0850094 0.80843
13.4839 34.4948 85.8447 0.524904 -0.111471 0.843827
12.5123 34.2739 86.4128 0.519821 -0.112299 0.846862
11.5564 34.1792 86.8874 0.4436 -0.145542 0.884328
10.2891 33.931 87.4694 0.444346 -0.17028 0.879102
9.18125 33.7193 88.0107 0.400706 -0.201235 0.891483
8.23878 33.6843 88.3547 0.338337 -0.215791 0.915941
7.22593 33.6549 88.6964 0.303771 -0.206248 0.930135
6.14085 33.6033 89.0345 0.263829 -0.239272 0.93326
4.98115 33.7155 89.2749 0.153882 -0.258176 0.953574
3.80082 33.7591 89.4742 0.127148 -0.270973 0.953887
2.14502 33.965 89.7281 0.11734 -0.249275 0.961293
0.73169 34.0828 89.8064 0.0260014 -0.23107 0.972573
-0.463215 34.0876 89.8327 0.0188449 -0.234267 0.971989
-1.82717 33.7835 89.7526 -0.0200118 -0.212664 0.976856
-2.99698 33.6182 89.6186 -0.124588 -0.224394 0.966177
-4.18479 33.7022 89.4499 -0.163994 -0.209342 0.963969
-5.66196 33.9365 89.206 -0.213343 -0.195214 0.957275
-6.83869 34.0498 88.9304 -0.315146 -0.214592 0.924452
-8.2377 34.0657 88.4501 -0.320468 -0.21142 0.923364
-9.6476 33.9857 87.7693 -0.408746 -0.202819 0.889369
-10.9053 34.0197 87.1703 -0.437253 -0.171261 0.882881
-11.8252 34.0626 86.7185 -0.453395 -0.175487 0.873723
-12.6858 34.0778 86.1896 -0.532352 -0.142243 0.834487
-13.5594 34.0561 85.6223 -0.534907 -0.13668 0.833773
-14.3917 33.9664 85.0124 -0.583271 -0.104025 0.805589
-15.2753 33.6723 84.3299 -0.607139 -0.0961611 0.788407
-16.1215 33.1149 83.5956 -0.616612 -0.0760099 0.783572
-16.7974 32.3796 82.9642 -0.637312 -0.0623517 0.767727
-17.2957 31.579 82.5087 -0.638729 -0.03983 0.7684
-17.8228 30.5595 82.0375 -0.626605 -0.0363557 0.778488
-18.2078 29.5974 81.6832 -0.630194 -0.0384254 0.775466
-18.5947 28.5953 81.3303 -0.631566 -0.0228283 0.774986
-18.893 27.3658 81.024 -0.599815 -0.0553086 0.798205
-19.1436 26.212 80.7623 -0.597452 -0.0493065 0.80038
-19.5725 24.6416 80.3694 -0.599137 -0.0316414 0.800019
-19.9697 23.4696 80.0191 -0.591346 -0.0453445 0.805142
-20.3651 22.4662 79.6771 -0.598044 -0.0406018 0.800375
-20.7252 21.5672 79.3518 -0.60493 -0.0458252 0.794959
-21.0355 20.4848 79.0687 -0.615954 -0.0349176 0.786876
-21.0919 19.2468 78.9626 -0.630346 -0.0279803 0.77579
-20.9353 17.966 79.0372 -0.619094 -0.0271627 0.784784
-20.551 16.7793 79.2818 -0.604053 -0.0335802 0.796236
-20.1332 15.7859 79.5591 -0.604655 -0.0319314 0.795847
-19.8528 14.6915 79.7403 -0.603816 -0.0223041 0.796812
-19.8069 12.8561 79.7111 -0.596298 -0.0281598 0.801794
-20.1092 11.6403 79.4221 -0.612368 -0.014714 0.790436
-20.641 10.6264 78.9979 -0.609971 -0.0055436 0.7924
-21.4 9.47016 78.3939 -0.624557 -0.0185839 0.780758
-21.8983 8.59681 77.974 -0.624652 -0.0210317 0.780618
-22.2948 7.70658 77.6325 -0.623393 -0.0212531 0.78162
-22.2709 6.43015 77.6289 -0.634527 -0.0133565 0.772618
-21.6056 5.32656 78.1522 -0.644712 -0.0130676 0.76422
-20.9103 4.68051 78.6987 -0.613234 -0.00882877 0.789843
-19.9615 3.95574 79.418 -0.603546 -0.00469299 0.797269
-19.2671 3.34187 79.9476 -0.587568 -0.0021899 0.808798
-18.6167 2.55525 80.3829 -0.567576 -0.00385906 0.823261
-18.0188 1.03027 80.8043 -0.568091 -0.00277531 0.822942
-17.5873 -0.417098 81.0826 -0.559613 -0.00500225 0.828722
-17.2496 -1.47056 81.3112 -0.569046 0.00632167 0.822269
