-20.3468 10.3178 11.507 -0.435517 -0.0622661 0.897833
-21.3081 10.2546 11.0586 -0.426545 -0.0491886 0.903008
-22.3522 10.358 10.5728 -0.406636 -0.0375651 0.912818
-23.6854 10.8319 9.9758 -0.415046 -0.00437047 0.909641
-24.6099 11.4053 9.57556 -0.399281 -0.0044722 0.916818
-25.707 12.2673 9.1297 -0.380335 -0.0154263 0.924678
-26.4995 12.8992 8.8111 -0.384674 -0.00410077 0.923043
-27.3211 13.4377 8.47124 -0.384767 -0.00439934 0.923003
-28.1587 13.8618 8.12341 -0.38567 -0.00507241 0.922622
-29.3918 14.2828 7.56897 -0.426199 -0.0424632 0.903562
-30.3126 14.4706 7.15602 -0.417028 -0.0463501 0.907711
-31.3698 14.5673 6.67184 -0.400581 -0.010112 0.91618
-32.5006 14.4747 6.16942 -0.404132 -0.0141956 0.91459
-33.3664 14.0931 5.79652 -0.371799 -0.0208614 0.928077
-34.4289 12.5965 5.33663 -0.363612 -0.0103318 0.931399
-34.4314 11.4714 5.33216 -0.351781 -0.0162705 0.935846
-33.7399 9.70999 5.55146 -0.367466 -0.0205889 0.929809
-33.1105 8.70202 5.7787 -0.387701 -0.00836786 0.921418
-32.5955 7.86848 6.01022 -0.406956 -0.00198376 0.913446
-32.118 6.98159 6.221 -0.40655 -0.00253607 0.913625
-31.699 5.94631 6.4007 -0.404188 -0.00826464 0.914638
-31.4124 4.8676 6.52583 -0.366697 0.0272744 0.92994
-31.2056 3.5728 6.64148 -0.36703 0.0179302 0.930014
-31.1255 2.5252 6.67351 -0.358477 -0.00721476 0.933511
-31.093 1.12456 6.65768 -0.3687 -0.0267594 0.929158
-31.0792 0.0292869 6.63048 -0.367224 -0.0158558 0.92992
-30.9527 -1.06067 6.67801 -0.378574 0.00841182 0.925506
-30.8928 -2.24808 6.70861 -0.392925 0.00486468 0.919549
-30.9427 -3.86149 6.69797 -0.402193 -0.00136317 0.915554
-31.179 -5.32746 6.59805 -0.401873 0.00858791 0.915516
-31.4977 -6.38013 6.47763 -0.41204 0.0171304 0.910998
-31.8983 -7.34831 6.31033 -0.408419 0.0133854 0.912687
-32.5369 -8.5635 6.03407 -0.408811 -0.0037416 0.912611
-33.1766 -9.54931 5.74261 -0.39627 0.000791446 0.918007
-33.7802 -10.4993 5.50125 -0.381555 0.00949567 0.924297
-34.2408 -11.5362 5.32646 -0.378957 0.0176337 0.925234
-34.4756 -12.8619 5.27142 -0.364666 0.0289701 0.930687
-33.7722 -14.3461 5.57268 -0.368619 0.0077088 0.929548
-32.5982 -15.0698 6.06787 -0.392297 0.0179737 0.919663
-31.5931 -15.2603 6.4989 -0.38172 0.0207349 0.923985
-29.923 -15.0699 7.16639 -0.373472 0.0272845 0.92724
-28.9656 -14.7961 7.56545 -0.398763 0.0150491 0.916889
-27.5882 -14.0647 8.16559 -0.410847 0.0198222 0.911489
-26.5851 -13.2919 8.59279 -0.409531 0.0105502 0.912162
-25.7621 -12.5195 8.97504 -0.422467 -0.00677851 0.906353
-24.9014 -11.7174 9.37851 -0.417602 0.0113479 0.908408
-24.1001 -11.108 9.71602 -0.401662 0.0218646 0.915527
-23.243 -10.5897 10.0795 -0.398075 0.0250903 0.916998
-22.268 -10.2249 10.4866 -0.39352 0.026754 0.918927
-21.1611 -10.0463 10.959 -0.405303 0.0224016 0.913846
-20.1925 -10.124 11.3996 -0.413725 0.015575 0.910268
-19.1609 -10.4872 11.876 -0.414881 0.0181117 0.909692
-18.1914 -11.0547 12.3451 -0.430191 0.0258601 0.902367
-17.4597 -11.6584 12.7085 -0.386175 0.0497695 0.92093
-16.6665 -12.4857 13.0406 -0.366079 0.0172297 0.930424
-16.0843 -13.3681 13.3046 -0.401098 0.037164 0.915281
-15.6185 -14.2576 13.5475 -0.40483 0.040794 0.913481
-15.2004 -15.1611 13.7729 -0.403195 0.0448163 0.914005
-14.5481 -16.5715 14.1363 -0.40811 0.0524829 0.911396
-14.0661 -17.4301 14.3952 -0.411885 0.0392928 0.910388
-13.1713 -18.2704 14.8557 -0.428761 0.0668211 0.900868
-12.2785 -18.6244 15.3157 -0.427038 0.0757494 0.901027
-11.3452 -18.5207 15.7685 -0.455607 0.0530392 0.888599
-10.3477 -18.2811 16.2671 -0.456565 0.0515803 0.888193
-9.40158 -18.1222 16.6919 -0.403844 0.0846675 0.910898
-8.42324 -18.0625 17.1203 -0.383953 0.0679388 0.920465
-7.47712 -18.1467 17.4587 -0.326903 0.0726703 0.942259
-6.15466 -18.5643 17.9891 -0.382667 0.102664 0.918163
-5.10776 -19.1465 18.4897 -0.361894 0.0948767 0.927088
-3.89713 -20.2267 19.0256 -0.338033 0.0808805 0.937652
-3.29814 -21.0206 19.2636 -0.288601 0.0784733 0.953902
-2.79201 -22.0136 19.5207 -0.30726 0.0861548 0.947657
-2.55281 -23.2486 19.6618 -0.279609 -0.0339088 0.958398
-2.50882 -24.3473 19.5907 -0.236272 0.0227939 0.966467
-2.74387 -25.3855 19.6652 -0.271 0.101035 0.956052
-3.14092 -26.4057 19.6658 -0.326282 0.27816 0.903411
-3.66201 -27.2679 19.7387 -0.360304 0.251931 0.897374
-4.33043 -28.2117 19.6892 -0.390481 0.200533 0.897938
-5.2002 -29.3729 19.5244 -0.398586 0.159218 0.903204
-5.88311 -30.4091 19.4107 -0.383727 0.139176 0.912723
-6.53292 -31.5904 19.2754 -0.400519 0.111625 0.909461
-7.02546 -32.5229 19.1779 -0.428765 0.0936689 0.897754
-7.86304 -33.8784 18.9029 -0.402492 0.0663234 0.913018
-9.07344 -35.2137 18.4514 -0.413566 0.055532 0.908779
-10.0816 -35.9392 18.0369 -0.479652 0.0783229 0.87362
-11.1645 -36.4839 17.463 -0.498922 0.0847116 0.862497
-12.1304 -36.7651 16.9501 -0.484434 0.0873422 0.870454
-13.32 -37.1292 16.2858 -0.513809 0.0568499 0.856019
-14.556 -37.6996 15.5589 -0.51651 0.0259269 0.855616
-15.3508 -38.3893 15.1221 -0.490423 0.0302726 0.870897
-16.1314 -39.4978 14.7358 -0.483674 0.026576 0.874767
-16.4867 -40.508 14.5848 -0.462891 0.0381148 0.885595
-16.3631 -41.9542 14.7143 -0.468556 0.0325398 0.882761
-15.9959 -42.9108 14.9405 -0.483782 0.0433699 0.873894
-15.3873 -44.0499 15.4069 -0.551277 0.0734304 0.831084
-14.7092 -45.1104 15.9328 -0.547385 0.0580751 0.834863
-14.086 -45.8453 16.3798 -0.536702 0.0628039 0.841384
-13.4118 -46.5306 16.8681 -0.536652 0.0721704 0.84071
-12.6784 -47.1367 17.3638 -0.514746 0.073507 0.854186
-11.8671 -47.6834 17.8988 -0.505946 0.0737746 0.859354
-10.874 -48.1527 18.5141 -0.498658 0.0766146 0.863406
-10.0074 -48.3177 19.0303 -0.502487 0.0633011 0.862263
-9.18818 -48.3728 19.6079 -0.574039 0.0570669 0.816837
-8.29136 -48.4156 20.2298 -0.508374 0.065406 0.858319
-6.89816 -48.5056 21.0222 -0.489526 0.0400842 0.871023
-5.55405 -48.5865 21.7126 -0.440839 0.0548264 0.895909
-4.04673 -48.6437 22.3991 -0.375598 0.0544401 0.924981
-3.07555 -48.6938 22.7752 -0.298219 0.0727145 0.949151
-1.5515 -48.7678 23.173 -0.174837 0.0801893 0.977418
-0.446965 -48.7109 23.2234 -0.0165278 0.0773564 0.996866
0.837219 -48.628 23.2274 0.00205106 0.0771423 0.99697
1.90193 -48.6544 23.0277 0.214206 0.156273 0.964206
3.22061 -48.6494 22.6831 0.286986 0.154418 0.945383
4.38737 -48.6035 22.2824 0.370034 0.152622 0.916161
5.62309 -48.5667 21.7921 0.362165 0.134197 0.922403
6.73952 -48.5238 21.3158 0.390449 0.134744 0.910711
7.75408 -48.4826 20.8755 0.43364 0.0261824 0.900494
8.86643 -48.4417 20.3276 0.442623 0.00823172 0.89667
9.88733 -48.3701 19.7723 0.498715 0.00545028 0.866748
10.8106 -48.2562 19.1997 0.525233 0.0653571 0.848425
12.2004 -47.7825 18.311 0.526218 0.0782725 0.846653
12.983 -47.2851 17.763 0.533055 0.0893034 0.841354
14.3426 -46.6375 16.8572 0.516593 0.0719796 0.8532
15.6141 -46.2609 16.0553 0.517639 0.0717784 0.852583
16.5086 -46.1514 15.5077 0.506704 0.0578629 0.860129
18.0239 -46.0163 14.6475 0.483802 0.0720192 0.872209
19.3666 -45.5581 13.8909 0.469982 0.0586408 0.880677
20.3004 -44.9737 13.3866 0.448166 0.0425741 0.892936
21.0534 -44.3217 12.9745 0.476054 0.0318227 0.878356
21.6763 -43.6118 12.5809 0.484823 0.0598958 0.872559
22.2456 -42.6815 12.2026 0.449786 0.0400008 0.892098
22.7446 -41.1964 11.9019 0.435964 0.03521 0.899275
22.731 -39.989 11.8424 0.44315 0.0564413 0.894647
22.4718 -38.911 11.9309 0.467318 0.0300239 0.883579
21.7619 -37.3995 12.2769 0.475958 0.0117137 0.87939
21.2131 -36.5747 12.5508 0.446116 0.0212324 0.894687
19.9603 -35.2298 13.1216 0.440188 0.0397319 0.897014
18.9888 -34.5154 13.561 0.438641 0.0432596 0.89762
17.4762 -33.7778 14.3216 0.490751 0.0403859 0.870364
16.5013 -33.5855 14.8646 0.470104 0.0512435 0.880572
15.1711 -33.7165 15.5321 0.444315 0.0418037 0.894895
14.1729 -34.0531 16.0978 0.490626 0.0592343 0.869354
13.1904 -34.5392 16.6724 0.472605 0.103818 0.8744
12.3645 -34.9887 17.1957 0.473346 0.139214 0.869805
11.4164 -35.4158 17.7552 0.453184 0.132604 0.881499
10.1233 -35.6713 18.5484 0.535917 0.131914 0.833898
9.2497 -35.5695 19.0501 0.504355 0.157482 0.847372
8.01811 -35.274 19.6625 0.481491 0.167076 0.859238
6.6815 -34.5387 20.2864 0.461133 0.10047 0.881623
5.44587 -33.4842 20.5174 0.317567 0.158933 0.934223
4.6976 -32.4822 20.5587 0.326458 0.211561 0.92123
4.13917 -31.5185 20.5128 0.291173 0.178356 0.937921
3.68117 -30.5805 20.5349 0.288876 0.116244 0.950279
3.19258 -29.6919 20.4704 0.0977227 0.168258 0.978135
2.63756 -28.8139 20.4403 0.0979858 0.0982972 0.990318
1.97812 -27.9214 20.4014 0.0805767 0.112879 0.990336
1.28487 -27.0132 20.3622 0.0887782 0.103791 0.990621
0.733411 -26.1374 20.1538 -0.08184 0.196859 0.976997
0.337757 -25.2151 20.1026 -0.0915297 0.00193377 0.995773
0.128041 -23.8903 20.0565 -0.123175 0.0174877 0.992231
0.28879 -22.6203 19.9953 0.0523322 0.0364293 0.995423
0.648552 -21.6703 20.0059 0.073148 -0.0274513 0.996943
1.13154 -20.7712 19.996 0.100225 -0.00619921 0.994329
1.82946 -19.9024 19.8482 0.151817 0.0840525 0.984815
2.53698 -19.1903 19.6718 0.158197 0.0944444 0.982875
3.54591 -18.4154 19.4255 0.251598 0.0905033 0.95947
5.0418 -17.7513 18.8102 0.349206 0.0921188 0.932506
6.41423 -17.5061 18.3117 0.322158 0.07021 0.943903
7.41127 -17.453 17.8893 0.396441 0.0505926 0.916655
8.74972 -17.7202 17.3809 0.351777 0.00262985 0.935388
9.82478 -18.1463 16.9255 0.373236 0.0510536 0.923813
10.8621 -18.6162 16.5409 0.396997 0.0846877 0.913737
11.7517 -18.9255 16.185 0.437384 0.0472802 0.896444
13.2598 -18.7176 15.3493 0.485423 0.0389047 0.873349
14.1342 -17.8498 14.8368 0.438035 0.0711302 0.896139
14.765 -16.8403 14.4675 0.41716 0.0549043 0.907173
15.248 -15.8336 14.1823 0.419407 0.0529145 0.906247
15.7745 -14.7683 13.916 0.393603 0.0231082 0.91898
16.4843 -13.5968 13.599 0.396381 0.0231659 0.917794
17.1247 -12.7886 13.3018 0.408693 0.0201802 0.912344
17.9627 -11.9997 12.8924 0.426425 0.0191071 0.904321
19.1038 -11.4299 12.39 0.360053 -0.0483851 0.931655
20.6864 -11.2359 11.7791 0.392137 -0.0212246 0.91873
21.6907 -11.4177 11.3244 0.412693 0.0100237 0.910815
22.8097 -12.0179 10.838 0.389474 0.0232431 0.920744
23.5277 -12.6624 10.5505 0.399109 0.0281851 0.916389
24.2095 -13.5199 10.2567 0.43178 0.0289432 0.901514
24.8496 -14.8472 9.98968 0.435519 0.0314515 0.899614
25.213 -15.7956 9.85308 0.423305 0.022497 0.905512
25.8769 -17.2332 9.58581 0.402398 0.0325244 0.914887
26.4351 -18.0479 9.36783 0.411839 0.00713388 0.910868
27.4232 -19.0124 8.89291 0.412229 -0.0123674 0.910953
28.5521 -19.7845 8.3911 0.397004 0.00446771 0.917769
29.6116 -20.2419 7.94528 0.379843 0.00615078 0.92503
30.5825 -20.4413 7.54319 0.386184 -0.00222051 0.922413
31.9616 -20.2961 6.99152 0.35387 -0.0199495 0.935082
33.098 -19.8073 6.56319 0.374475 -0.0230508 0.92692
33.8568 -18.1637 6.27199 0.38477 -0.00998284 0.922957
33.725 -17.0906 6.33351 0.385114 0.00232301 0.922835
33.3321 -16.1201 6.48518 0.380376 0.00989581 0.924779
32.8719 -15.17 6.66527 0.373338 0.0138711 0.927547
32.4249 -14.1512 6.81917 0.366477 0.0205548 0.9302
32.0394 -13.0943 6.94822 0.365743 0.017781 0.930544
31.6987 -11.9566 7.07337 0.37583 0.0109414 0.926623
31.4632 -10.7639 7.15638 0.377938 0.00854485 0.92579
31.3473 -9.23868 7.1882 0.383194 0.00827984 0.923627
31.3466 -8.15921 7.18451 0.385317 -0.00438946 0.922771
31.3811 -7.04209 7.1751 0.382463 -0.00379056 0.923961
31.541 -5.51855 7.11514 0.369578 -0.0112668 0.929131
31.8205 -4.27949 7.0182 0.37627 0.00202071 0.926413
32.3463 -2.5712 6.77769 0.385469 0.00957646 0.922671
32.9479 -0.915795 6.51722 0.37765 0.00667588 0.925924
33.4403 0.374898 6.31656 0.367344 -0.00182921 0.930038
33.7979 1.44803 6.18412 0.361882 -0.0112506 0.932127
33.8426 2.56519 6.18804 0.364704 -0.0179838 0.93095
33.4251 3.70035 6.37117 0.366293 -0.00406967 0.930488
32.8826 4.52392 6.58784 0.367704 -0.00239813 0.92994
32.1611 5.43277 6.86909 0.37547 0.0102706 0.926678
31.5029 6.4186 7.13819 0.387844 0.00728084 0.921696
31.0421 7.38523 7.31349 0.393715 0.00836061 0.91907
30.7824 8.3532 7.42843 0.410737 -0.000395851 0.911705
30.6299 9.51755 7.5108 0.412887 -0.00966807 0.910713
30.5944 10.5336 7.54469 0.402054 -0.0433458 0.914379
30.7221 11.6616 7.56157 0.391641 -0.0554728 0.918443
30.96 12.7476 7.50662 0.381665 -0.0146386 0.924167
31.2136 13.7568 7.41217 0.385304 -0.0119008 0.922713
31.4282 14.7338 7.33425 0.408358 -0.0149143 0.912693
31.4736 15.7594 7.33066 0.404379 -0.0145005 0.914477
31.0921 16.8474 7.5171 0.406159 -0.0154639 0.913671
30.3291 17.5247 7.8689 0.407489 -0.0155574 0.913077
28.8723 17.9497 8.53046 0.411574 -0.0239874 0.911061
27.5142 17.7964 9.15022 0.426593 -0.0236854 0.904134
26.3358 17.403 9.6858 0.409327 -0.0399301 0.911441
25.5056 16.9021 10.0245 0.398823 -0.0417462 0.916077
24.6725 16.245 10.3518 0.402516 -0.0550996 0.913706
23.831 15.2988 10.676 0.411218 -0.0535782 0.909961
23.2472 14.4508 10.9175 0.425751 -0.0153618 0.90471
22.4971 13.4622 11.2494 0.41243 -0.0319585 0.91026
21.5026 12.4668 11.6392 0.411304 -0.0431428 0.910445
20.0631 11.7427 12.2651 0.413248 -0.0334936 0.910002
19.0661 11.6609 12.7361 0.427364 -0.020301 0.903837
17.9625 11.9559 13.2587 0.421735 -0.0185868 0.906523
17.0428 12.5743 13.7093 0.432346 -0.0472431 0.900351
16.3616 13.3916 14.0942 0.433234 -0.0631685 0.899065
15.824 14.293 14.3973 0.421121 -0.0491792 0.905667
15.4204 15.1895 14.6531 0.418669 -0.0750376 0.905027
15.0857 16.1288 14.8896 0.422413 -0.0711952 0.903583
14.7045 17.2749 15.1508 0.427684 -0.0688588 0.90128
14.3128 18.3429 15.424 0.432704 -0.0698323 0.898827
13.8166 19.196 15.7295 0.446111 -0.0829299 0.890902
12.8399 20.1749 16.3448 0.462314 -0.0878845 0.882308
11.8639 20.864 16.8465 0.389128 -0.0651141 0.918879
10.8755 21.5995 17.3145 0.38594 -0.061486 0.920473
9.97191 22.5019 17.7668 0.450074 -0.0650934 0.890228
9.39025 23.6848 18.1831 0.465565 -0.081279 0.881271
9.16908 24.9607 18.4349 0.467007 -0.128312 0.874636
9.25635 26.0722 18.5728 0.452943 -0.146275 0.879455
9.54913 27.2332 18.6153 0.472631 -0.163794 0.865168
10.1463 28.6271 18.5827 0.492943 -0.189568 0.849157
10.7309 29.6111 18.3995 0.519253 -0.139987 0.843077
11.3618 30.3464 18.1422 0.506527 -0.147795 0.849441
12.3806 31.3403 17.722 0.50064 -0.155021 0.851662
13.11 32.1493 17.3955 0.527283 -0.0979724 0.844023
13.8209 33.1611 17.0675 0.511402 -0.0765602 0.85592
14.3052 34.0505 16.894 0.477736 -0.095386 0.87331
15.0245 35.4961 16.6303 0.488709 -0.0543371 0.870725
15.4805 36.4624 16.4313 0.496767 -0.0440058 0.866683
16.0168 37.9769 16.1825 0.514185 -0.0550524 0.855356
16.4382 39.7332 16.0788 0.530955 -0.0778375 0.843818
16.5937 41.3965 16.1082 0.511556 -0.0788179 0.855171
16.5192 42.4135 16.2795 0.514083 -0.106445 0.851105
15.9758 43.5688 16.7402 0.542364 -0.0684033 0.837134
14.8416 44.6124 17.5676 0.555288 -0.0584577 0.829305
14.1261 45.106 18.0967 0.565777 -0.0511777 0.822954
13.343 45.5888 18.6945 0.550939 -0.0799141 0.830147
12.505 46.0398 19.2578 0.526244 -0.0869151 0.845871
11.6447 46.6028 19.8548 0.579283 -0.0807459 0.808562
10.8691 47.3185 20.561 0.637498 -0.0781305 0.766475
10.122 48.0473 21.2591 0.602314 -0.0834108 0.792526
9.30181 48.4016 21.82 0.535392 -0.0793662 0.840866
8.42805 48.4889 22.3842 0.533964 -0.0626007 0.843161
7.52043 48.5487 22.9281 0.510509 -0.0398782 0.858947
6.2265 48.6072 23.6863 0.462347 -0.0506787 0.88437
5.24294 48.697 24.154 0.413896 -0.0686027 0.907715
4.29856 48.7638 24.5837 0.32612 -0.0993407 0.935675
2.72049 48.7885 24.9909 0.218297 -0.0922958 0.970378
1.64026 48.739 25.0777 0.0470226 0.0924092 0.993777
-0.0654933 48.724 25.0487 -0.0631155 -0.0574286 0.996312
-1.1006 48.7097 24.9682 -0.152178 -0.0637587 0.984488
-2.81551 48.6819 24.5869 -0.298291 -0.0668884 0.948635
-4.29559 48.6204 23.981 -0.374417 -0.0896789 0.922908
-5.72507 48.6089 23.3916 -0.383846 -0.0906077 0.918938
-6.64577 48.5865 22.8411 -0.547661 -0.0537609 0.834971
-7.54734 48.5502 22.247 -0.550775 -0.056841 0.832703
-8.3657 48.4938 21.6707 -0.569019 -0.0851706 0.817902
-9.41793 48.3986 20.9176 -0.59928 -0.0977499 0.794312
-10.4714 48.348 20.0972 -0.607117 -0.113741 0.78643
-11.4073 48.3034 19.3946 -0.589066 -0.112369 0.800233
-12.6721 48.1943 18.4821 -0.552322 -0.107102 0.826494
-13.8846 48.021 17.6338 -0.561222 -0.126754 0.817882
-15.2001 47.0862 16.5746 -0.566084 -0.127215 0.81447
-15.8426 46.426 16.0856 -0.534569 -0.0966607 0.839579
-16.4748 45.2979 15.5569 -0.528774 -0.0926864 0.843686
-16.565 44.2418 15.3822 -0.548407 -0.082705 0.831714
-16.3503 42.9884 15.4152 -0.567004 -0.0838969 0.819431
-16.0387 41.9635 15.5258 -0.563733 -0.0869152 0.821357
-15.6698 41.0368 15.6938 -0.556086 -0.0593222 0.829005
-15.0683 40.0232 16.0128 -0.536382 -0.0817823 0.840003
-14.2711 38.9794 16.4361 -0.52587 -0.0733083 0.847085
-13.5094 37.8336 16.7926 -0.537142 -0.0971805 0.837823
-12.8465 36.8687 17.1118 -0.534076 -0.0844646 0.841206
-12.1448 36.0172 17.4921 -0.557216 -0.101054 0.823484
-11.0205 34.8766 18.0432 -0.529891 -0.108376 0.8405
-10.2219 34.2679 18.4363 -0.500529 -0.105969 0.859202
-9.29137 33.7276 18.9354 -0.554104 -0.104949 0.8258
-8.45257 33.102 19.4114 -0.504215 -0.114548 0.855769
-7.14856 32.2647 19.9882 -0.484618 -0.115773 0.865597
-6.31778 31.6577 20.3446 -0.469223 -0.233452 0.851663
-5.46925 30.9467 20.6142 -0.434495 -0.239386 0.867519
-4.73507 30.192 20.8011 -0.404608 -0.13597 0.904325
-4.04374 29.1775 20.9889 -0.44019 -0.0854687 0.893828
-3.53176 28.0902 21.1374 -0.441226 -0.0889761 0.892966
-3.22539 27.0368 21.1751 -0.398067 -0.0919379 0.91271
-3.05265 25.8904 21.1382 -0.436607 -0.0860818 0.895467
-2.96526 24.7405 20.9732 -0.223167 -0.180068 0.957997
-3.09121 23.7381 20.7521 -0.228702 -0.155041 0.960629
-3.42717 22.7005 20.5314 -0.238061 -0.12853 0.962708
-3.98004 21.6301 20.252 -0.249288 -0.0876677 0.963539
-4.92159 20.401 19.6308 -0.433384 -0.14171 0.889998
-5.62368 19.7493 19.2032 -0.441473 -0.127759 0.887974
-7.02304 18.9825 18.3653 -0.452123 -0.104227 0.885422
-7.18378 18.9143 18.2777 -0.43126 -0.0987175 0.896286
-7.3869 19.6081 18.2901 -0.422507 -0.144909 0.894585
-6.2881 20.1639 18.9215 -0.445059 -0.141336 0.884158
-5.27819 21.0517 19.5608 -0.439523 -0.1285 0.88887
-4.57666 21.9812 20.034 -0.430121 -0.0975011 0.897141
-3.8638 23.5436 20.488 -0.4092 -0.0843696 0.90841
-3.63435 24.6226 20.7177 -0.41331 -0.107928 0.904171
-3.76172 26.2095 20.8231 -0.436607 -0.0860818 0.895467
-3.96234 27.2647 20.8373 -0.439548 -0.0956612 0.893111
-4.33688 28.3391 20.7644 -0.441226 -0.0889761 0.892966
-5.10371 29.5781 20.5441 -0.40499 -0.135067 0.90429
-5.88751 30.4331 20.3002 -0.437593 -0.143033 0.88769
-7.27781 31.5132 19.804 -0.462717 -0.14941 0.873191
-8.25581 32.1369 19.3464 -0.503258 -0.170325 0.847171
-9.38516 32.95 18.7815 -0.531386 -0.0904463 0.84191
-10.4633 33.5928 18.2146 -0.503596 -0.0951438 0.858683
-11.3887 34.249 17.7596 -0.508013 -0.0939854 0.856011
-12.4185 35.3319 17.2308 -0.505127 -0.0774705 0.859349
-13.2896 36.3052 16.8061 -0.494017 -0.0567673 0.867594
-14.1421 37.65 16.3956 -0.509921 -0.0558337 0.858354
-14.7038 38.4659 16.1238 -0.519611 -0.0577835 0.852354
-15.6178 39.5787 15.6194 -0.533341 -0.0658266 0.84318
-16.1375 40.4513 15.3518 -0.513768 -0.0464237 0.856672
-16.6287 41.7529 15.1203 -0.526228 -0.05257 0.848552
-16.9475 42.7112 14.9977 -0.530669 -0.0665625 0.844961
-17.2575 44.346 14.9589 -0.526579 -0.0945042 0.844847
-17.1391 45.5854 15.1717 -0.528737 -0.091607 0.843828
-16.7788 46.4682 15.4934 -0.532072 -0.0941865 0.84143
-15.9606 47.3419 16.1175 -0.534864 -0.100088 0.838987
-15.2886 48.0019 16.6549 -0.570372 -0.117894 0.812835
-14.1479 48.7571 17.5664 -0.568965 -0.0736625 0.818432
-13.211 48.8915 18.1966 -0.550307 -0.0819257 0.830928
-12.2984 48.9492 18.8092 -0.573462 -0.092142 0.813435
-11.4671 49.0274 19.447 -0.598607 -0.101009 0.794646
-10.4237 49.0668 20.2379 -0.602633 -0.0986359 0.791725
-9.12188 49.1502 21.2126 -0.591241 -0.0827109 0.802242
-8.26574 49.2177 21.8156 -0.569019 -0.0851706 0.817902
-7.43453 49.27 22.3902 -0.553221 -0.0788675 0.829218
-6.32639 49.3052 23.1169 -0.52964 -0.068185 0.845161
-5.03943 49.3248 23.7521 -0.383335 -0.10293 0.917853
-3.84732 49.3597 24.2531 -0.369757 -0.123704 0.920843
-2.49254 49.4081 24.7194 -0.236667 -0.0769644 0.968489
-1.37132 49.4265 24.9728 -0.152178 -0.0637587 0.984488
0.312049 49.4418 25.114 -0.0631155 -0.0574286 0.996312
1.38221 49.445 25.1482 0.0388173 -0.0985476 0.994375
2.46652 49.4804 25.0814 0.185309 -0.063489 0.98062
4.11693 49.5016 24.721 0.329746 -0.0899323 0.935412
5.46651 49.3967 24.1014 0.416388 -0.0641331 0.906916
6.76867 49.3066 23.4021 0.489158 -0.0280669 0.871737
7.76428 49.2752 22.8169 0.510509 -0.0398782 0.858947
9.10386 49.2215 22.0233 0.530795 -0.0741474 0.844219
9.96334 49.0607 21.4601 0.536279 -0.0783205 0.840399
10.8026 48.3874 20.727 0.638742 -0.0799158 0.76526
11.5791 47.5303 19.995 0.591713 -0.0822797 0.800015
12.3413 46.9412 19.4563 0.527155 -0.0902546 0.844963
13.1358 46.5042 18.9131 0.526244 -0.0869151 0.845871
13.9654 46.0755 18.2955 0.578521 -0.0739092 0.812311
14.6876 45.6031 17.7379 0.574645 -0.0618344 0.815968
15.5784 44.9499 17.1168 0.538672 -0.0524073 0.840884
16.3118 44.2583 16.5877 0.532145 -0.0798729 0.842594
17.1324 43.048 15.9876 0.513303 -0.0898589 0.853351
17.2741 41.776 15.7632 0.489561 -0.091316 0.867174
17.2336 40.5738 15.6592 0.488465 -0.0905099 0.867876
16.997 39.228 15.6806 0.511223 -0.0582623 0.85692
16.7041 37.9864 15.7923 0.493217 -0.0359648 0.869162
16.383 36.9815 15.9341 0.49457 -0.0358505 0.868392
15.8331 35.6832 16.1811 0.494069 -0.0547281 0.867698
15.3746 34.7352 16.3819 0.509161 -0.0508873 0.859057
14.7939 33.549 16.5943 0.45205 -0.0693194 0.889292
13.9718 32.1737 16.8861 0.411796 -0.0885609 0.906962
13.3298 31.3567 17.1685 0.509538 -0.123814 0.850757
12.3805 30.4593 17.56 0.501669 -0.158714 0.850372
11.6359 29.7272 17.8733 0.51011 -0.143747 0.848012
10.868 28.699 18.1628 0.515436 -0.141106 0.845214
10.3483 27.6195 18.2635 0.451617 -0.134735 0.881975
10.0212 26.4421 18.245 0.447628 -0.146936 0.882063
9.83371 25.0744 18.1146 0.436087 -0.131016 0.890108
10.0096 23.8487 17.8849 0.427771 -0.0992453 0.898419
10.9083 22.5088 17.3618 0.388023 -0.0606561 0.919648
11.6589 21.8908 17.0055 0.387301 -0.0631046 0.919788
12.7666 21.16 16.4538 0.437405 -0.051602 0.897783
13.7162 20.4417 15.9081 0.462931 -0.07924 0.882845
14.4625 19.5672 15.4473 0.42933 -0.0717257 0.900285
15.1866 18.0077 14.9786 0.42853 -0.0756108 0.900351
15.5228 16.9666 14.7453 0.423144 -0.0652591 0.903709
15.8882 15.8449 14.4908 0.419035 -0.0749979 0.90486
16.2598 14.9039 14.2444 0.416914 -0.07336 0.90598
16.7107 14.0516 13.9721 0.426578 -0.0577073 0.902561
17.3525 13.2071 13.6042 0.435402 -0.0594649 0.898258
18.3677 12.5279 13.0796 0.423665 -0.0302482 0.905218
19.4789 12.3464 12.5563 0.427364 -0.020301 0.903837
20.4165 12.5659 12.1349 0.413029 -0.0400088 0.909813
21.2322 13.1175 11.7934 0.408956 -0.0471931 0.911325
22.0065 13.9212 11.4837 0.416872 -0.014635 0.908846
22.8928 15.2002 11.0974 0.421914 -0.0159572 0.906484
23.4757 16.0309 10.8875 0.423687 -0.0737669 0.9028
24.1797 16.7733 10.6172 0.429045 -0.0579597 0.901275
25.0371 17.4674 10.2574 0.403013 -0.0464852 0.914012
26.0375 18.0839 9.8479 0.404838 -0.0375042 0.913575
27.118 18.521 9.35625 0.426186 -0.02383 0.904321
28.0209 18.6902 8.93469 0.41914 -0.0239283 0.907569
29.2023 18.7013 8.40162 0.410691 -0.0251745 0.911427
30.1718 18.4947 7.95825 0.411973 -0.0255448 0.910838
31.0571 17.9691 7.55212 0.406675 -0.0153292 0.913444
31.749 17.2588 7.23689 0.400146 -0.0177239 0.916275
32.2216 15.4526 6.99504 0.405655 -0.0164069 0.913876
32.0732 14.3634 7.03961 0.408358 -0.0149143 0.912693
31.8178 13.3533 7.14134 0.409865 -0.0118733 0.912069
31.5374 12.295 7.24481 0.41682 -0.0472678 0.907682
31.295 11.1726 7.28326 0.41159 -0.0596607 0.909414
31.2191 10.0967 7.2534 0.386813 -0.0136724 0.922055
31.2937 9.09418 7.20544 0.383742 -0.0135316 0.923336
31.4952 8.09845 7.11518 0.393557 0.00035207 0.919217
32.0082 6.88992 6.92161 0.386088 0.0141453 0.922328
33.046 5.47048 6.52356 0.363 0.0135619 0.93169
33.7404 4.63827 6.24894 0.367725 -0.00240272 0.929931
34.258 3.76804 6.03482 0.376933 -0.00385323 0.926233
34.612 2.54959 5.88611 0.370972 -0.0108186 0.928533
34.5709 1.42328 5.88657 0.359646 -0.00426839 0.933079
33.9745 -0.236605 6.1081 0.359349 -0.00450785 0.933192
33.3132 -1.89296 6.37529 0.375563 0.00832523 0.926756
32.8483 -3.2208 6.57926 0.377341 0.014756 0.925953
32.5244 -4.29482 6.72961 0.379418 0.0147343 0.925108
32.2499 -5.38525 6.83286 0.372979 -0.0101621 0.927784
32.0675 -6.38279 6.89584 0.371143 -0.0102702 0.928516
32.0282 -7.55523 6.90787 0.365948 -0.00246039 0.930632
32.0198 -9.01217 6.91232 0.3681 0.00553301 0.92975
32.066 -10.2052 6.90736 0.364033 0.0105395 0.931326
32.2137 -11.2415 6.85764 0.362017 0.00702032 0.932144
32.4857 -12.2531 6.75905 0.37461 0.0106165 0.927121
32.877 -13.4741 6.62682 0.366112 0.019645 0.930363
33.2603 -14.4015 6.49561 0.373766 0.0165844 0.927333
33.7752 -15.4696 6.29629 0.38158 0.00820763 0.924299
34.2518 -16.3999 6.10775 0.390232 0.00510689 0.920649
34.5537 -17.4947 5.97585 0.396661 -4.67078e-05 0.917965
34.5285 -18.8386 5.98658 0.389804 -0.00445707 0.920857
34.1441 -19.8383 6.13229 0.382618 -0.0170372 0.923745
33.2423 -20.6499 6.48062 0.369186 -0.0285488 0.928917
32.0552 -21.0784 6.94012 0.362024 -0.0232413 0.931829
30.8546 -21.2208 7.42865 0.386906 0.00585735 0.922101
29.7436 -21.0929 7.90366 0.394944 0.0204532 0.918257
28.7558 -20.6965 8.30408 0.399569 0.00241123 0.916643
27.8875 -20.2572 8.68552 0.411073 0.0100432 0.911547
27.0518 -19.6467 9.05781 0.421398 0.00113231 0.906827
26.3238 -19.0276 9.40443 0.425096 -0.00828013 0.90511
25.6899 -18.2782 9.70329 0.400913 0.029485 0.91564
25.0179 -17.1213 9.95929 0.401333 0.0306774 0.915418
24.5725 -16.0708 10.1448 0.411433 0.00806329 0.911404
24.2201 -15.1125 10.2892 0.37773 0.0185239 0.925696
23.7852 -14.1813 10.4536 0.368054 0.00311095 0.929799
22.8058 -12.8901 10.8604 0.387843 -0.0130446 0.921632
21.5818 -12.1267 11.3815 0.412832 0.00990849 0.910753
20.6527 -11.9269 11.7917 0.37516 0.00962086 0.926418
19.1665 -12.1422 12.3487 0.357806 0.0286416 0.933252
17.9021 -12.9577 12.9425 0.425812 0.0207285 0.904574
17.1807 -13.7692 13.2945 0.420032 0.0171924 0.907346
16.6539 -14.5929 13.5491 0.380644 0.020619 0.924439
16.0788 -15.7003 13.8221 0.381114 0.0313173 0.923997
15.6103 -16.7166 14.0718 0.416226 0.0561725 0.907522
15.1357 -17.6741 14.3473 0.417066 0.0545519 0.907237
14.4182 -18.7171 14.7658 0.439267 0.0509854 0.896663
13.2743 -19.6379 15.3654 0.462389 0.0246179 0.886062
12.3563 -19.8459 15.8769 0.484717 0.0217697 0.8744
11.2968 -19.5881 16.4421 0.434284 0.0576585 0.898039
10.1132 -19.0738 16.9267 0.408296 0.0977861 0.907594
8.60559 -18.4177 17.4293 0.369403 0.0519277 0.92535
7.4581 -18.1818 17.9057 0.392374 0.0305552 0.919298
6.0632 -18.2696 18.4905 0.37685 0.0320926 0.925708
4.80781 -18.5817 18.9806 0.347562 0.0869939 0.933592
3.80288 -19.0954 19.3959 0.344624 0.0811528 0.935226
2.70417 -20.039 19.7213 0.164453 0.0635384 0.984077
1.91509 -20.9501 19.8984 0.14714 0.0117307 0.988832
1.22295 -22.3124 19.9467 0.0687337 -0.0232158 0.99735
0.90524 -23.4511 20.053 0.0528693 0.105874 0.992969
0.950585 -24.5323 20.1627 0.00506838 0.0488816 0.992616
1.56184 -26.0949 20.1969 -0.0595266 0.0954337 0.98776
2.17703 -27.0062 20.2815 0.0887782 0.103791 0.990621
2.82167 -27.7845 20.2965 0.212291 0.158361 0.964231
3.5319 -28.8267 20.3117 0.220238 0.166036 0.961211
4.04656 -29.7183 20.3098 0.318256 0.114305 0.940969
4.49845 -30.6408 20.2841 0.316652 0.131283 0.939412
4.96616 -31.5938 20.2843 0.253403 0.181124 0.95025
5.58624 -32.5806 20.31 0.252567 0.183176 0.950082
6.25146 -33.3492 20.2288 0.310129 0.12496 0.942426
7.36061 -34.2157 19.8891 0.499877 0.129338 0.855033
8.4167 -34.7327 19.3339 0.481491 0.167076 0.859238
9.41443 -34.9369 18.8626 0.4516 0.197246 0.870144
10.4203 -34.9767 18.2481 0.509842 0.11909 0.85144
11.7225 -34.497 17.4607 0.468473 0.120139 0.875049
12.5449 -34.0545 16.9787 0.469297 0.068343 0.880392
13.94 -33.3252 16.1705 0.475838 0.0707039 0.876686
14.849 -32.9966 15.6584 0.444064 0.0406743 0.89507
15.8478 -32.8327 15.1552 0.445167 0.0402798 0.894541
17.0141 -32.8971 14.5418 0.486132 0.0459106 0.872641
18.0445 -33.2018 13.9745 0.490751 0.0403859 0.870364
18.9126 -33.6294 13.5567 0.444306 0.0345723 0.895207
19.7999 -34.189 13.1492 0.439131 0.0446264 0.897313
20.6011 -34.8516 12.7896 0.446277 0.0361311 0.894157
21.3441 -35.6154 12.4481 0.467695 0.0481068 0.882215
22.3425 -37.0023 11.9552 0.488439 0.0286107 0.872129
22.7954 -37.8883 11.7245 0.471571 0.020985 0.881518
23.2586 -39.2136 11.5346 0.455781 0.0355797 0.889381
23.5127 -40.3137 11.4726 0.45148 0.0596606 0.890284
23.3878 -41.7202 11.6106 0.434433 0.0370609 0.899938
22.8437 -43.0957 11.9316 0.434939 0.0432537 0.899408
21.851 -44.498 12.5445 0.484326 0.059525 0.87286
21.1866 -45.1512 12.9079 0.472705 0.00560729 0.881187
20.2917 -45.8575 13.3994 0.482909 0.0319976 0.874693
19.3722 -46.3964 13.9458 0.482056 0.0544375 0.874447
18.3315 -46.7468 14.5377 0.477758 0.0702562 0.875645
17.3786 -46.8301 15.0705 0.481356 0.05556 0.874762
16.203 -46.9105 15.7528 0.517419 0.0708058 0.852797
15.1628 -47.0861 16.3986 0.51707 0.07137 0.852962
13.7441 -47.6668 17.3367 0.527875 0.104897 0.842808
12.8693 -48.2056 17.9433 0.520639 0.0886953 0.84903
11.6318 -48.8765 18.751 0.516247 0.0740032 0.853237
10.3985 -49.0659 19.4811 0.493289 0.0197887 0.869474
9.223 -49.1734 20.1581 0.470402 0.00517649 0.881881
7.59662 -49.2226 21.0012 0.447707 0.0633058 0.891499
6.24954 -49.2766 21.6369 0.407445 0.10016 0.906905
5.03664 -49.3251 22.1486 0.378575 0.172084 0.909432
3.99255 -49.3433 22.5631 0.289799 0.163469 0.943022
2.95679 -49.3951 22.8872 0.283011 0.163045 0.945156
1.92027 -49.3791 23.1419 0.196346 0.157391 0.967431
0.291285 -49.4057 23.2887 0.00205106 0.0771423 0.99697
-0.85937 -49.4762 23.2735 -0.0724785 0.059539 0.994166
-1.87316 -49.4978 23.1601 -0.123126 0.0331805 0.991708
-3.51769 -49.4162 22.6717 -0.357366 0.0911687 0.929468
-4.57403 -49.3487 22.2506 -0.415455 0.0862334 0.903326
-5.99766 -49.2911 21.5215 -0.449585 0.0335295 0.8926
-7.04792 -49.2259 20.9641 -0.482913 0.0260864 0.875235
-8.19017 -49.1359 20.3212 -0.523031 0.0240599 0.851105
-9.60993 -49.0734 19.3384 -0.577712 0.0323558 0.815599
-10.4845 -49.0045 18.8027 -0.502487 0.0633011 0.862263
-11.6542 -48.6409 18.0996 -0.524118 0.0498471 0.849603
-12.6923 -48.019 17.4107 -0.538933 0.00486113 0.842333
-13.4298 -47.4461 16.9299 -0.554706 0.0135707 0.831771
-14.1528 -46.7958 16.4114 -0.57404 0.0226852 0.818512
-14.8221 -46.1014 15.928 -0.539499 0.0381754 0.840777
-15.3875 -45.3578 15.5055 -0.54416 0.0618238 0.8367
-15.9185 -44.4793 15.0926 -0.521055 0.0663195 0.850165
-16.6231 -43.2119 14.6093 -0.48469 0.058922 0.872672
-17.1379 -41.6856 14.2784 -0.498697 0.0384485 0.865847
-17.1225 -40.0647 14.1959 -0.502605 0.0485361 0.863152
-16.5042 -38.7582 14.4872 -0.509005 0.0419748 0.859739
-15.8711 -37.8946 14.8113 -0.490774 0.0310321 0.870691
-14.6321 -36.8452 15.4836 -0.512539 0.0458103 0.857378
-13.5761 -36.4548 16.0929 -0.506972 0.0402634 0.861014
-12.166 -36.0401 16.8583 -0.481463 0.0832467 0.872504
-10.8642 -35.5974 17.5497 -0.49801 0.0780796 0.863626
-9.84441 -34.9564 18.084 -0.455745 0.0636383 0.886563
-9.00959 -34.199 18.4184 -0.413586 0.05523 0.908788
-8.31967 -33.3934 18.6666 -0.402023 0.0664734 0.913213
-7.66098 -32.3278 18.8532 -0.427584 0.102118 0.898188
-6.8684 -30.6858 19.0166 -0.400519 0.111625 0.909461
-6.29839 -29.7479 19.1353 -0.383727 0.139176 0.912723
-5.37766 -28.4854 19.3013 -0.370998 0.162082 0.91428
-4.73903 -27.6786 19.369 -0.364294 0.219205 0.904374
-4.05206 -26.6599 19.4092 -0.36256 0.253546 0.895955
-3.60064 -25.7196 19.4166 -0.301768 0.0708511 0.950745
-3.30019 -24.5055 19.4208 -0.266622 0.0961364 0.958007
-3.25427 -23.432 19.4264 -0.316917 -0.0055114 0.948435
-3.4828 -22.2997 19.3282 -0.30993 0.0710321 0.947976
-4.03145 -21.1767 19.0474 -0.297766 0.0774489 0.951323
-4.66422 -20.4318 18.7667 -0.338033 0.0808805 0.937652
-5.52087 -19.7387 18.3843 -0.381224 0.0840715 0.920475
-6.88138 -19.0178 17.7356 -0.383725 0.101781 0.917821
-7.84546 -18.8103 17.3821 -0.326903 0.0726703 0.942259
-8.85705 -18.7786 16.9922 -0.383953 0.0679388 0.920465
-9.78783 -18.8956 16.5895 -0.450209 0.0417441 0.891936
-10.6763 -19.0858 16.1449 -0.456565 0.0515803 0.888193
-11.5565 -19.3601 15.7111 -0.447694 0.0595202 0.892158
-12.6945 -19.4076 15.1824 -0.419039 0.066201 0.905455
-13.7621 -18.8621 14.6263 -0.429907 0.0776517 0.899525
-14.5587 -18.0091 14.1974 -0.410159 0.0436257 0.910958
-15.2141 -16.8357 13.8569 -0.402795 0.0425804 0.914277
-15.8166 -15.4795 13.5188 -0.407199 0.0528947 0.911784
-16.2422 -14.5498 13.2812 -0.411739 0.0364172 0.910574
-16.693 -13.6702 13.0461 -0.397389 0.0210776 0.917227
-17.2348 -12.8505 12.8142 -0.386543 0.00829725 0.922225
-18.2346 -11.8812 12.3479 -0.429705 0.0233996 0.902663
-19.0697 -11.2998 11.9359 -0.415634 0.0206696 0.909297
-20.3094 -10.8295 11.3587 -0.415115 0.0181841 0.909584
-21.296 -10.7571 10.923 -0.39798 0.0291217 0.916932
-22.2899 -10.9808 10.4993 -0.395502 0.0278657 0.918039
-23.7825 -11.7403 9.87047 -0.401495 0.0217276 0.915604
-24.589 -12.3611 9.51623 -0.409423 -0.00401598 0.912295
-25.2628 -13.0364 9.20078 -0.417441 -0.0101382 0.908647
-26.5264 -14.2112 8.64032 -0.394668 0.0115995 0.918751
-27.5381 -14.8855 8.20611 -0.413307 0.00711135 0.910471
-28.5293 -15.4024 7.76287 -0.398046 0.00387515 0.917344
-29.5988 -15.7943 7.31847 -0.381789 0.0243929 0.923881
-30.6956 -15.9784 6.87506 -0.378271 0.00627146 0.925674
-31.8337 -16.0364 6.40568 -0.388402 0.005287 0.921464
-32.7591 -15.8586 6.00975 -0.392877 0.00773328 0.919558
-33.8689 -15.2741 5.54273 -0.370332 0.00576303 0.928877
-34.7606 -14.3927 5.18099 -0.368538 0.0071386 0.929585
-35.2583 -13.1889 4.97463 -0.366692 0.0178494 0.930109
-35.1268 -12.0092 4.99873 -0.347723 0.0101799 0.937542
-34.6465 -10.5691 5.14559 -0.363204 0.0198545 0.931299
-34.1 -9.63485 5.36044 -0.379909 0.00713188 0.924994
-33.4359 -8.69688 5.63 -0.38144 0.00482606 0.924381
-32.8803 -7.82187 5.88306 -0.407287 0.00592487 0.913226
-32.2125 -6.37247 6.15504 -0.388841 -0.00739025 0.920825
-31.8692 -5.41926 6.30408 -0.39156 -0.00269911 0.920149
-31.6817 -4.36192 6.38544 -0.389811 0.00337337 0.920888
-31.5838 -2.98921 6.41845 -0.399563 0.00840572 0.91666
-31.6061 -1.91359 6.40308 -0.395123 0.00202777 0.918624
-31.7347 -0.734268 6.3548 -0.392163 -0.0164541 0.919745
-31.7881 0.477091 6.36129 -0.37362 -0.0270486 0.927184
-31.7661 1.63228 6.40208 -0.371678 -0.0255831 0.928009
-31.7846 2.8353 6.41772 -0.366974 -0.0104191 0.930154
-31.931 3.85734 6.35109 -0.364124 0.0185441 0.931119
-32.1146 4.8885 6.24836 -0.366615 0.0271772 0.929976
-32.4872 6.15855 6.06445 -0.368898 0.028266 0.929036
-32.9379 7.12476 5.85603 -0.407037 -0.00210325 0.913409
-33.4596 7.98411 5.62526 -0.387701 -0.00836786 0.921418
-34.0111 8.80869 5.4249 -0.367587 -0.0199507 0.929775
-34.5485 9.70808 5.23195 -0.358894 -0.0256688 0.932971
-35.0198 10.844 5.09208 -0.351029 -0.029802 0.93589
-35.2817 12.2325 5.01304 -0.354089 -0.00341075 0.935205
-35.0451 13.2209 5.10437 -0.356558 -0.00196402 0.93427
-34.5239 14.0663 5.33033 -0.372802 -0.0219652 0.927651
-33.7867 14.7544 5.64268 -0.370607 -0.0193531 0.928588
-32.8622 15.1883 6.02089 -0.388034 -0.0174202 0.921296
-31.7623 15.3264 6.50693 -0.396214 -0.00496457 0.918145
-30.7711 15.2805 6.94849 -0.430414 0.0014451 0.902631
-29.2186 15.0226 7.68591 -0.4222 -0.0225368 0.905897
-28.1099 14.6763 8.14921 -0.385736 -0.00610712 0.922589
-27.2378 14.2354 8.50977 -0.384357 -0.00476249 0.923172
-25.8843 13.3427 9.06974 -0.391436 -0.00465574 0.920167
-24.9144 12.5334 9.46878 -0.388513 -0.0190088 0.921246
-24.0951 11.9018 9.80132 -0.393494 -0.010707 0.919215
-22.8463 11.23 10.3777 -0.429889 -0.00490222 0.902868
-21.6597 10.9859 10.9194 -0.435838 -0.037424 0.899246
-20.4257 11.0181 11.5188 -0.427472 -0.0503009 0.902499
-19.1269 11.3331 12.1519 -0.428873 -0.0244783 0.903032
-18.2537 11.7591 12.5502 -0.395976 -0.0483514 0.916583
-17.0463 12.6798 13.1665 -0.415467 -0.0719993 0.906736
-16.1519 13.4763 13.621 -0.409666 -0.0598828 0.910179
-15.2735 14.3867 14.0484 -0.409787 -0.0257976 0.911808
-14.437 15.4401 14.4473 -0.405132 -0.0229636 0.91397
-13.7347 16.4889 14.8131 -0.422918 -0.0596919 0.904001
-13.147 17.361 15.1575 -0.431518 -0.0299067 0.901609
-12.4755 18.0957 15.5032 -0.445273 -0.0319664 0.894687
-11.7062 18.6198 15.9242 -0.473957 -0.0808008 0.876832
-10.4853 18.9657 16.6397 -0.504336 -0.083943 0.859416
-9.35318 19.0576 17.3095 -0.460853 -0.113464 0.879186
-8.21601 19.3091 17.8651 -0.412728 -0.136216 0.90061
-7.98234 19.3913 17.9851 -0.412356 -0.13812 0.900489
-8.18097 20.0974 18.001 -0.413403 -0.132781 0.900806
-9.39827 19.8099 17.3612 -0.486553 -0.0800236 0.869737
-10.2725 19.786 16.8463 -0.504637 -0.0853427 0.859103
-11.6602 19.5028 16.0311 -0.473316 -0.0813255 0.87713
-12.6039 18.9756 15.4726 -0.461985 -0.0614573 0.884359
-13.2984 18.3268 15.1171 -0.431544 -0.0302126 0.901586
-13.9395 17.4857 14.7823 -0.435076 -0.030254 0.899878
-14.4755 16.6593 14.4921 -0.407727 -0.0553128 0.911427
-15.0439 15.7621 14.1862 -0.405482 -0.0383704 0.913165
-15.7855 14.8852 13.8465 -0.373148 -0.033841 0.927154
-16.8803 13.746 13.3244 -0.39392 -0.0753321 0.916052
-17.8174 12.9199 12.8353 -0.413247 -0.0671605 0.908139
-18.6698 12.307 12.4039 -0.430339 -0.0617626 0.900325
-19.5345 11.9052 11.9741 -0.429117 -0.0253079 0.902892
-20.8755 11.6904 11.3249 -0.433459 -0.0264819 0.900782
-21.9605 11.7304 10.8032 -0.435225 -0.0229807 0.900025
-22.9155 12.021 10.3513 -0.431723 -0.0210427 0.901761
-23.8786 12.6227 9.90842 -0.407963 -0.0244811 0.912429
-24.9234 13.4815 9.48563 -0.389382 -0.0201802 0.920855
-25.7658 14.183 9.12544 -0.398049 -0.00523963 0.917349
-26.7083 14.7908 8.73321 -0.3818 -0.0115566 0.924139
-27.6725 15.2766 8.3452 -0.386823 -0.0219235 0.921891
-28.5416 15.6232 7.98643 -0.398763 -0.00711032 0.916861
-29.9539 15.9482 7.33577 -0.424761 0.00622722 0.905284
-30.9588 16.0542 6.8578 -0.413669 -0.00190407 0.910233
-32.6918 16.0111 6.10968 -0.400331 -0.00972883 0.916291
-33.6844 15.7221 5.70364 -0.371904 -0.0170245 0.928115
-34.4863 15.2075 5.37288 -0.371823 -0.0208252 0.928068
-35.4331 14.1106 4.96208 -0.37259 -0.0218871 0.927726
-35.8504 13.1813 4.79694 -0.356558 -0.00196402 0.93427
-35.9399 11.3886 4.75974 -0.369969 -0.00319153 0.928963
-35.6181 10.2936 4.84531 -0.359743 -0.0369792 0.932318
-34.9174 8.91464 5.09215 -0.354952 0.00807823 0.934712
-34.3632 8.08991 5.29469 -0.341343 0.00127147 0.939938
-33.8074 7.27435 5.5036 -0.356759 0.0190915 0.933847
-33.3037 6.36864 5.73162 -0.370915 0.0276986 0.928254
-32.9035 5.31465 5.92463 -0.371251 0.0294099 0.928067
-32.5986 3.76278 6.09066 -0.37273 0.0108261 0.927705
-32.4386 2.14162 6.14467 -0.37571 -0.0123882 0.926633
-32.4946 1.01525 6.09136 -0.375492 -0.0280776 0.9264
-32.4771 -0.567791 6.05151 -0.374532 -0.0264807 0.926836
-32.2927 -2.12567 6.10471 -0.399927 0.0027532 0.916541
-32.2935 -3.66903 6.11836 -0.399072 0.0132682 0.916823
-32.4031 -4.73793 6.07975 -0.376833 0.000616064 0.926152
-32.7092 -5.80659 5.96488 -0.363619 0.00298323 0.931543
-33.1211 -6.7799 5.77583 -0.377056 -0.0305802 0.925685
-33.6633 -7.81933 5.5312 -0.39565 0.00079638 0.918259
-34.3429 -8.78307 5.25611 -0.380794 0.00465378 0.924648
-34.9719 -9.61638 5.00237 -0.362955 0.0160332 0.931472
-35.5085 -10.7476 4.83272 -0.345611 0.0258782 0.938021
-35.9314 -12.1581 4.70207 -0.347593 0.0102162 0.93759
-35.9928 -13.3974 4.69261 -0.359177 0.0221355 0.932904
-35.2592 -15.015 4.98813 -0.360438 0.00917238 0.932698
-34.0855 -16.0877 5.45875 -0.370396 0.002989 0.928869
-33.2025 -16.5221 5.82881 -0.382724 0.0130301 0.923771
-32.3107 -16.7689 6.20857 -0.388973 0.00510016 0.921223
-31.271 -16.8024 6.64275 -0.384958 0.00252047 0.922931
-30.2612 -16.7 7.05758 -0.378452 0.00600815 0.925601
-29.3321 -16.5484 7.43688 -0.381398 0.00599801 0.924388
-27.8234 -15.8984 8.06969 -0.398025 -0.00516 0.917303
-26.9355 -15.3921 8.47312 -0.402941 -0.0111274 0.915134
-25.6184 -14.4497 9.03337 -0.396208 0.0124279 0.918075
-24.9506 -13.7274 9.33834 -0.417319 -0.00133392 0.908759
-24.2909 -13.0184 9.64707 -0.409311 -0.0041386 0.912326
-23.528 -12.3951 9.98115 -0.400855 -0.00144725 0.91614
-22.6138 -11.8409 10.385 -0.412018 0.020855 0.910855
-21.5606 -11.4899 10.8312 -0.397225 0.0279319 0.917296
-20.0434 -11.6201 11.5011 -0.40725 0.0307914 0.912798
-19.133 -12.0434 11.9241 -0.422957 0.0231821 0.905815
-18.3092 -12.7033 12.3318 -0.426139 0.0125537 0.904521
-17.6299 -13.4498 12.6542 -0.392219 0.0127745 0.919746
-17.1206 -14.2881 12.876 -0.384982 0.0118649 0.922846
-16.669 -15.2597 13.1188 -0.41267 0.0557215 0.909175
-16.2261 -16.2691 13.3807 -0.408027 0.0499387 0.911587
-15.7929 -17.3215 13.6183 -0.405013 0.0314528 0.913766
-15.3219 -18.2722 13.8678 -0.408866 0.0455914 0.91145
-14.732 -19.0751 14.1789 -0.430463 0.0818936 0.898885
-13.6228 -19.9277 14.7851 -0.426835 0.0781232 0.900947
-12.2945 -20.2354 15.4169 -0.416173 0.0667438 0.906769
-11.1628 -20.0245 15.9473 -0.434071 0.0482877 0.899513
-10.128 -19.7307 16.456 -0.455529 0.0408929 0.889278
-8.62584 -19.4924 17.123 -0.364752 0.0520342 0.929649
-7.68593 -19.5546 17.4936 -0.34472 0.0614836 0.936442
-6.58351 -19.9415 17.9625 -0.381933 0.0837429 0.920207
-5.65724 -20.4959 18.3828 -0.37291 0.0638261 0.925644
-4.76792 -21.3561 18.7895 -0.368029 0.0743008 0.926715
-4.06469 -22.7539 19.1597 -0.325402 0.0629959 0.943463
-3.95245 -23.9402 19.1983 -0.288496 0.0225795 0.956766
-4.13572 -25.0759 19.2103 -0.277569 0.0621371 0.958694
-4.515 -26.0781 19.1649 -0.284259 0.0547536 0.957135
-5.02431 -26.9356 19.1081 -0.325143 0.197141 0.924857
-6.14531 -28.365 18.9666 -0.368054 0.170535 0.914026
-7.02711 -29.5949 18.7953 -0.396893 0.128642 0.908805
-7.52687 -30.4788 18.7022 -0.398125 0.118703 0.909563
-8.25806 -32.0678 18.5395 -0.439387 0.0977561 0.892848
-9.06324 -33.248 18.3286 -0.407799 0.0958353 0.907517
-9.90861 -34.1547 17.9804 -0.494666 0.0728494 0.866019
-11.1513 -35.0078 17.3355 -0.497976 0.0714871 0.864239
-12.0402 -35.3 16.8573 -0.481753 0.0830375 0.872364
-13.4604 -35.651 16.1085 -0.489649 0.082643 0.867922
-14.8017 -36.1218 15.348 -0.52019 0.0425721 0.852977
-15.8056 -36.7883 14.7919 -0.504217 0.0530325 0.861947
-16.8274 -37.9992 14.2592 -0.506704 0.0338939 0.861416
-17.4978 -39.1155 13.9215 -0.502968 0.0507003 0.862816
-17.8408 -40.1024 13.7798 -0.502917 0.0496767 0.862905
-17.8313 -41.6458 13.8728 -0.499137 0.0534167 0.864857
-17.5809 -42.7449 14.0602 -0.490427 0.0284002 0.871005
-16.9732 -43.9765 14.4652 -0.486837 0.0610347 0.871284
-16.1655 -45.4138 15.0036 -0.509669 0.050689 0.857833
-15.5855 -46.2882 15.4448 -0.54424 0.0612336 0.836692
-14.8831 -47.0519 15.9063 -0.554457 0.0195487 0.831625
-14.1907 -47.7242 16.4091 -0.572081 0.0210663 0.819924
-13.505 -48.2892 16.8928 -0.571487 0.00641558 0.820584
-12.7557 -48.8562 17.3784 -0.554015 0.0396748 0.831561
-11.6638 -49.4787 18.1294 -0.547177 0.0361572 0.836234
-10.3947 -49.7477 18.9111 -0.504605 0.0643791 0.860946
-9.20541 -49.8062 19.6544 -0.565494 0.0214955 0.824258
-7.96394 -49.8741 20.4772 -0.517726 0.0189291 0.854441
-7.05486 -49.949 20.9785 -0.476538 0.0228111 0.878858
-6.1288 -50.0094 21.4842 -0.46547 0.0308177 0.884377
-5.23083 -50.0519 21.951 -0.471944 0.0609531 0.879519
-4.3381 -50.0946 22.4281 -0.360671 0.106597 0.926582
-2.92607 -50.1521 22.9838 -0.331941 0.0688262 0.939509
-1.67261 -50.2076 23.2134 -0.11198 0.106267 0.98796
-0.573297 -50.1756 23.3288 -0.0367791 0.0627075 0.997182
0.711796 -50.1263 23.3302 0.0114312 0.0628784 0.997952
1.81405 -50.1019 23.2741 0.120766 0.0981822 0.984998
2.94916 -50.1088 23.0126 0.262915 0.153068 0.952332
4.23707 -50.0562 22.6154 0.331756 0.168661 0.92701
5.25935 -50.0565 22.1831 0.408388 0.121032 0.904749
6.68957 -49.9768 21.4811 0.438482 0.0926901 0.893394
8.05392 -49.9543 20.805 0.473815 0.0594723 0.878614
9.16168 -49.9297 20.2022 0.484233 0.0412142 0.873963
10.6978 -49.78 19.3429 0.486472 0.0348394 0.873001
11.661 -49.6655 18.7868 0.497621 0.0332757 0.866756
12.4983 -49.3798 18.2707 0.517075 0.0748121 0.852664
13.2674 -48.8178 17.7556 0.527321 0.0707185 0.846629
14.2155 -48.2304 17.1043 0.53156 0.0837947 0.84271
15.1195 -47.8481 16.4885 0.522903 0.0847477 0.848022
16.1497 -47.6294 15.8448 0.518113 0.0709957 0.852361
17.6379 -47.5615 14.974 0.481493 0.0550017 0.874722
18.5748 -47.4908 14.4321 0.489113 0.0230557 0.87175
19.4186 -47.2183 13.9709 0.479885 0.0341399 0.876482
20.3262 -46.7143 13.4355 0.489522 0.0544158 0.87029
21.0701 -46.1585 12.9798 0.484148 0.0320805 0.874011
21.7762 -45.55 12.5986 0.467032 0.00519277 0.884225
22.4449 -44.8791 12.2413 0.47548 0.0329501 0.878619
23.3137 -43.6732 11.7344 0.435832 0.0481537 0.898739
23.8481 -42.631 11.4287 0.432772 0.0386712 0.900674
24.1635 -41.6481 11.2273 0.445515 0.0380363 0.894458
24.2078 -40.3941 11.1292 0.436332 0.0654965 0.897399
23.9893 -39.3092 11.1629 0.454454 0.0479931 0.889386
23.4622 -37.6362 11.3664 0.459524 0.037484 0.887374
22.6576 -36.136 11.7503 0.488347 0.0288646 0.872172
21.9839 -35.2947 12.0683 0.485284 0.0578665 0.872427
21.2475 -34.4638 12.4213 0.474035 0.0535377 0.878808
20.3747 -33.7315 12.8425 0.455621 0.0596132 0.888154
18.8772 -32.801 13.5423 0.444306 0.0345723 0.895207
17.9926 -32.4069 13.9671 0.468076 0.0375172 0.882506
16.9955 -32.1384 14.5071 0.481265 0.0518925 0.875038
16.0844 -32.0494 15.0027 0.463076 0.0454118 0.884895
14.4446 -32.287 15.8313 0.46002 0.0399176 0.886895
13.4889 -32.7056 16.3652 0.4745 0.0580333 0.878244
12.4631 -33.2604 16.9606 0.47268 0.065564 0.87878
11.6033 -33.7711 17.4632 0.478247 0.0648384 0.87582
10.5986 -34.1877 18.0487 0.484293 0.0888836 0.870132
9.16872 -34.2621 18.837 0.452382 0.197891 0.869591
8.03704 -33.8823 19.4002 0.504469 0.162193 0.847993
7.03854 -33.1704 19.9315 0.436283 0.0964574 0.889211
6.29631 -32.3997 20.0862 0.279034 0.159877 0.946176
5.31224 -30.7132 20.0267 0.251909 0.175375 0.951724
4.87137 -29.7708 20.0372 0.317945 0.115337 0.940924
4.38914 -28.8468 20.1024 0.317423 0.105176 0.942413
3.83136 -27.9635 20.0931 0.220562 0.159987 0.962136
3.2339 -27.1119 20.0953 0.220943 0.158773 0.962256
2.45696 -26.15 20.1007 0.204813 0.0995606 0.971973
1.92972 -25.2138 20.127 0.11198 0.0956345 0.989097
1.65876 -23.8836 20.0336 0.103669 0.077307 0.991603
1.87689 -22.7488 19.924 0.0817785 0.0897462 0.992207
2.27148 -21.7943 19.847 0.162824 0.00953514 0.986601
2.9932 -20.8199 19.7066 0.162664 0.0401635 0.985862
4.44132 -19.519 19.2004 0.303885 0.136391 0.942893
5.71698 -19.0579 18.6592 0.394014 0.0922003 0.912168
6.74888 -18.9059 18.2342 0.387182 0.0357496 0.921269
7.74203 -18.9456 17.8099 0.37558 0.0554378 0.924629
9.02037 -19.3147 17.384 0.338054 0.102282 0.93517
10.3308 -19.9901 16.9303 0.422464 0.0635495 0.903267
11.2047 -20.3587 16.5055 0.448659 0.0216583 0.893438
12.1717 -20.644 15.9956 0.477109 0.0158274 0.878698
13.0683 -20.5992 15.501 0.464596 0.0262112 0.884836
14.0852 -20.0586 14.9781 0.443463 0.0302398 0.895782
14.8948 -19.3062 14.5498 0.444187 0.0310861 0.895394
15.5293 -18.4518 14.2125 0.417366 0.059927 0.906736
16.0119 -17.5137 13.9342 0.418671 0.053229 0.906577
16.4379 -16.5668 13.6915 0.404425 0.0291899 0.914054
16.934 -15.5113 13.4474 0.40717 0.0204597 0.913123
17.5735 -14.3727 13.1245 0.418058 0.0276851 0.907996
18.631 -13.2245 12.605 0.396965 0.0299044 0.916749
19.5736 -12.7415 12.2124 0.367432 0.0385711 0.92925
20.7357 -12.6425 11.7553 0.401815 0.00045649 0.915721
21.7557 -12.9603 11.3083 0.400727 0.00425062 0.916179
22.5396 -13.6045 10.9631 0.390091 -0.00577542 0.920732
23.232 -14.6429 10.6776 0.385408 0.0102238 0.922688
23.6293 -15.5683 10.5394 0.37773 0.0185239 0.925696
24.1802 -16.9522 10.3294 0.39725 0.00964761 0.917525
24.6519 -18.0165 10.1486 0.399766 0.0282156 0.916183
25.4227 -19.1103 9.82309 0.41615 -0.00825361 0.909259
26.3167 -19.9971 9.40072 0.422914 0.00526821 0.906098
27.0985 -20.59 9.04754 0.420549 0.0154701 0.907137
27.9475 -21.1639 8.66813 0.413763 0.0258565 0.909968
29.141 -21.6848 8.17224 0.383564 0.0203494 0.923203
30.1462 -21.9523 7.73055 0.398051 0.00676578 0.917256
31.2679 -21.9397 7.25979 0.388738 0.003147 0.921337
32.2818 -21.8537 6.8297 0.379931 -0.0107868 0.924815
33.2649 -21.5517 6.44628 0.368401 -0.0216929 0.929414
34.0807 -21.0485 6.13582 0.347967 -0.0114133 0.937433
34.9979 -19.8683 5.80791 0.345097 -0.00360797 0.938542
