-5.14512 26.7214 51.3218 -0.197822 -0.0510119 0.978863
-4.35515 26.3259 51.4486 -0.164323 -0.0460558 0.984946
-3.21044 26.1674 51.5807 -0.105945 -0.0323269 0.993837
-2.87987 26.1531 51.6134 -0.0880781 -0.036734 0.995423
-3.14645 25.3752 51.5651 -0.0959422 -0.0305419 0.994853
-4.20236 25.3964 51.4323 -0.159957 -0.0446194 0.985677
-5.86527 25.3642 51.0972 -0.200119 -0.0459459 0.978694
-6.83126 24.9712 50.8874 -0.190908 -0.0444957 0.980596
-7.9787 24.6203 50.5686 -0.270304 -0.0401113 0.961939
-7.01678 25.341 50.8691 -0.230812 -0.0443523 0.971125
-6.12573 26.505 51.1107 -0.202521 -0.0514309 0.977888
-5.72973 27.5553 51.2374 -0.201993 -0.0402746 0.978558
-5.47906 28.6314 51.334 -0.201533 -0.0475425 0.978302
-5.26926 29.7788 51.439 -0.197841 -0.0528799 0.978807
-5.03079 30.9518 51.5291 -0.172476 -0.0403012 0.984137
-4.71355 32.0384 51.6381 -0.168329 -0.0505947 0.984431
-4.27217 32.9286 51.7646 -0.155879 -0.0489504 0.986474
-3.23113 34.0896 51.9553 -0.0977138 -0.030199 0.994742
-2.30211 34.6423 52.0741 -0.0970011 -0.0519426 0.993912
-1.10744 34.7115 52.1874 -0.0912271 -0.0519857 0.994472
-0.0669228 34.3296 52.2271 -0.00368737 -0.0488259 0.9988
1.49063 33.3046 52.1749 0.0224939 -0.0506636 0.998265
2.55915 32.6774 52.0972 0.04847 -0.0539609 0.997366
3.54362 32.2271 52.0248 0.0576554 -0.0525051 0.996913
4.94326 31.7555 51.8702 0.0926748 -0.0827247 0.992254
6.07879 31.4535 51.7029 0.147976 -0.0726094 0.986322
7.24237 31.1692 51.5059 0.177699 -0.0682594 0.981277
8.18885 30.8829 51.2876 0.206057 -0.0633005 0.976491
9.06881 30.367 51.0574 0.214822 -0.0727647 0.973938
9.77209 29.695 50.8064 0.291218 -0.0634505 0.95455
10.5779 28.504 50.475 0.318144 -0.0742634 0.944906
10.9709 27.4925 50.2566 0.303274 -0.0904477 0.948601
11.3342 26.0692 50.0225 0.330203 -0.0658477 0.94103
11.6635 24.7231 49.7846 0.357666 -0.0714749 0.931096
12.5424 23.1616 49.3371 0.358063 -0.0636421 0.93152
13.2194 22.4362 49.0241 0.371251 -0.0538274 0.926971
14.0165 21.7947 48.6678 0.405662 -0.066135 0.910797
15.2414 21.0288 48.0329 0.440807 -0.0436774 0.896535
16.0939 20.7636 47.5846 0.456742 -0.052912 0.888022
17.1541 20.67 47.0063 0.480839 -0.0522917 0.875248
18.7331 20.6571 46.1026 0.507912 -0.0444108 0.860263
18.6636 19.5849 46.097 0.507335 -0.0366536 0.860969
18.4701 18.1939 46.1408 0.493903 -0.0352229 0.868804
18.3093 17.13 46.1802 0.51569 -0.0469627 0.855424
18.0588 15.5748 46.2421 0.499139 -0.0456958 0.865314
17.7065 14.6225 46.4025 0.505166 -0.0404947 0.862071
17.0042 13.494 46.7465 0.489667 -0.0243598 0.871569
16.3924 12.4613 47.0614 0.460646 -0.0356493 0.886199
15.8613 11.3681 47.2762 0.449867 -0.0449905 0.891962
15.4798 9.88334 47.4206 0.455556 -0.00869276 0.890165
15.4153 8.80047 47.4373 0.431386 -0.0224509 0.901872
15.5858 7.46647 47.3021 0.440828 -0.0350692 0.896906
15.7929 6.40562 47.1708 0.45065 -0.0109621 0.892618
15.9814 5.27172 47.0564 0.455091 -0.0151727 0.890315
15.9721 3.90481 47.0436 0.455233 -0.0098724 0.890315
15.7094 2.92861 47.153 0.485804 -0.0198854 0.873715
15.1366 2.05764 47.445 0.462547 -0.016886 0.886434
14.2576 1.40057 47.8866 0.418685 -0.0134654 0.907518
13.2816 1.12463 48.3013 0.393147 -0.00911327 0.919421
11.6991 1.53286 48.9564 0.36831 -0.00878106 0.929659
10.9573 2.17529 49.2401 0.345414 -0.0115605 0.938364
10.4124 3.01913 49.4472 0.334649 -0.0151227 0.942207
10.1331 4.77148 49.5768 0.312984 -0.0215172 0.948981
10.3489 5.7588 49.5064 0.338221 -0.0236366 0.940617
10.8304 6.64737 49.3715 0.338289 -0.0402293 0.940182
11.4788 7.52372 49.1548 0.371866 -0.0218959 0.92802
12.1263 8.40736 48.9079 0.377621 -0.0158937 0.925824
12.647 9.29969 48.7055 0.384727 -0.0208371 0.922761
13.0559 10.215 48.5631 0.385403 -0.028335 0.922313
13.2952 11.2227 48.4832 0.423052 -0.0203592 0.905822
13.39 12.2798 48.4749 0.420734 -0.0312948 0.906644
13.2404 13.3455 48.5749 0.411513 -0.0316744 0.910811
13.0235 14.3407 48.705 0.401119 -0.0258569 0.915654
12.7183 15.5568 48.8773 0.39669 -0.0452625 0.916836
12.4512 16.5147 49.039 0.395976 -0.0444808 0.917183
11.9246 17.9939 49.327 0.348581 -0.0398711 0.935848
11.4248 19.0834 49.5456 0.326529 -0.049419 0.943838
10.8956 20.0087 49.7869 0.342515 -0.0420897 0.938567
10.1887 20.7509 50.075 0.283171 -0.0559167 0.956991
8.91957 21.6992 50.4752 0.253146 -0.0638547 0.965319
7.39561 22.4813 50.9334 0.254957 -0.0570937 0.965216
6.37056 22.9138 51.1293 0.166989 -0.0309276 0.985473
5.35323 23.3723 51.3196 0.136631 -0.0387572 0.989327
4.36081 23.9034 51.48 0.11442 -0.0590204 0.991576
2.93798 24.5163 51.6575 0.0765025 -0.0602041 0.994905
1.94782 24.8397 51.7015 0.0188143 -0.0369531 0.99914
0.510655 25.118 51.7201 -0.0045766 -0.0515715 0.998538
-0.575026 25.1868 51.7295 -0.029431 -0.0660775 0.996845
-1.86779 25.292 51.6556 -0.048431 -0.0492608 0.997316
-2.69597 25.3445 51.6024 -0.086917 -0.0275952 0.995817
-2.38537 24.5 51.6112 -0.0886287 -0.0218447 0.995825
-3.85618 24.583 51.4566 -0.13002 -0.0174948 0.991346
-5.18877 24.5874 51.2026 -0.200179 -0.0211109 0.979526
-6.77633 23.827 50.8539 -0.205748 -0.0297904 0.978131
-7.5431 22.7572 50.6184 -0.23422 -0.0529015 0.970743
-8.00403 21.7831 50.4492 -0.301868 -0.043593 0.952147
-8.309 20.7257 50.2933 -0.286185 -0.0599601 0.955652
-8.50676 19.7504 50.1675 -0.25736 -0.0442367 0.964875
-8.86872 18.4551 50.0005 -0.296924 -0.047643 0.953712
-9.37945 17.4562 49.7922 -0.294575 -0.0378011 0.954851
-9.84301 16.4461 49.598 -0.333746 -0.0359119 0.941979
-10.275 15.5521 49.4109 -0.33488 -0.0322433 0.9417
-10.8763 14.1683 49.1557 -0.36571 -0.0362975 0.929357
-11.186 12.866 48.968 -0.405288 -0.03037 0.913684
-11.2293 11.8265 48.9149 -0.400274 -0.017671 0.916133
-11.0462 10.2951 48.9418 -0.379639 -0.0470646 0.923937
-10.8104 8.77024 48.9844 -0.375877 -0.0128879 0.926579
-10.6505 7.35105 49.0286 -0.34722 -0.00350069 0.937774
-10.5476 6.30956 49.061 -0.345052 -0.00515728 0.938569
-10.411 4.97605 49.0973 -0.352414 -0.0167895 0.935693
-10.1164 3.17896 49.1813 -0.34196 -0.0207529 0.9394
-9.90724 2.07342 49.2524 -0.34323 0.00228975 0.939172
-9.65257 0.586687 49.3379 -0.332178 -0.00304877 0.943211
-9.54776 -0.630874 49.3776 -0.333224 0.00402883 0.942839
-9.79578 -2.32487 49.2752 -0.326444 -0.0232418 0.944931
-10.3264 -3.23725 49.0698 -0.348713 0.00950566 0.936949
-11.3503 -4.49722 48.6696 -0.365193 0.00654297 0.930904
-12.0064 -5.46593 48.3837 -0.398284 -0.010111 0.917206
-12.5922 -6.85965 48.1134 -0.431879 0.00158738 0.90193
-12.7511 -8.44228 48.0514 -0.427632 0.0250042 0.903555
-12.4343 -9.41075 48.2392 -0.413616 0.0270007 0.909831
-11.8351 -10.2941 48.5184 -0.397205 0.0254973 0.917376
-11.2076 -11.0203 48.8098 -0.378208 0.0158866 0.925329
-10.3997 -11.8148 49.1279 -0.362 0.0268338 0.931572
-9.73082 -12.6337 49.4155 -0.316505 0.024786 0.948267
-9.09766 -13.9264 49.6636 -0.316725 0.0308777 0.948015
-8.76661 -15.1671 49.7938 -0.2815 0.0220852 0.959251
-8.99011 -16.8235 49.7667 -0.311219 0.0201244 0.950124
-9.69967 -18.3494 49.5744 -0.314376 0.0384244 0.948502
-10.8606 -19.3715 49.1743 -0.382709 0.0465546 0.922695
-11.7426 -19.7074 48.8111 -0.399773 0.0312171 0.916077
-12.8272 -19.6875 48.3335 -0.406901 0.0397773 0.912564
-13.9262 -19.382 47.7934 -0.448262 0.0419911 0.892916
-14.6741 -18.8133 47.3912 -0.448947 0.0429223 0.892526
-15.3477 -18.1369 47.0185 -0.474367 0.0352831 0.879155
-15.985 -17.1203 46.6163 -0.506466 0.0362722 0.861496
-16.3103 -16.1768 46.3844 -0.506251 0.0373705 0.861576
-16.4113 -15.0104 46.2797 -0.503272 0.0203827 0.863842
-16.217 -13.6061 46.3524 -0.496671 0.0240993 0.867604
-15.8359 -12.4508 46.5435 -0.496432 0.0194703 0.867857
-15.2463 -11.6022 46.8538 -0.489448 0.0236356 0.871712
-14.3598 -10.3323 47.3144 -0.463349 0.0185686 0.88584
-13.7554 -9.2787 47.6008 -0.44236 0.0254696 0.896385
-13.4464 -8.33633 47.7231 -0.426392 0.0141278 0.904426
-13.443 -7.29197 47.7066 -0.428681 0.00853587 0.903381
-13.8424 -6.14785 47.5106 -0.445024 0.0047588 0.89541
-14.5417 -5.10094 47.1474 -0.453755 8.56875e-05 0.891126
-15.224 -4.25315 46.7989 -0.481594 0.00699483 0.875801
-15.8526 -3.44994 46.432 -0.503866 -0.00481734 0.863767
-16.4649 -2.34494 46.0763 -0.506084 -0.000642397 0.862245
-16.8869 -1.28677 45.8154 -0.519074 -0.00750171 0.854639
-17.162 -0.330002 45.6668 -0.512939 -0.011876 0.858343
-17.3102 0.784977 45.5914 -0.513641 -0.00701634 0.857976
-17.4383 2.10856 45.5251 -0.52671 -0.00359528 0.849874
-17.5523 3.23722 45.469 -0.534066 -0.0127444 0.845347
-17.7463 4.54494 45.3697 -0.535205 -0.022041 0.844434
-17.8901 5.60723 45.3075 -0.535246 -0.0234151 0.844372
-17.9816 7.31988 45.2904 -0.526587 -0.0193069 0.849897
-17.9279 8.44412 45.3483 -0.525057 -0.0201286 0.850828
-17.5183 9.88409 45.6404 -0.524355 -0.0251184 0.851128
-16.9995 10.9902 46.0051 -0.525927 -0.0364706 0.849747
-16.5663 11.8451 46.2943 -0.500821 -0.0373845 0.864665
-15.9878 13.3502 46.7141 -0.505912 -0.0429124 0.861466
-15.7513 14.3642 46.8727 -0.48744 -0.0151835 0.873024
-15.6661 15.5199 46.9523 -0.493224 -0.0550218 0.868161
-15.7207 17.0009 47.0129 -0.496174 -0.054503 0.866507
-15.8757 18.5362 47.0222 -0.49893 -0.0510085 0.865133
-15.9099 19.5826 47.0636 -0.502254 -0.0502849 0.863256
-15.5834 21.2535 47.3403 -0.480597 -0.0563291 0.874831
-15.0193 22.4757 47.724 -0.491033 -0.0543423 0.869401
-14.4138 23.3577 48.0824 -0.423829 -0.070032 0.903031
-13.2686 24.1987 48.6684 -0.396371 -0.0483973 0.916716
-12.3543 24.3874 49.0603 -0.383439 -0.0524058 0.922073
-11.3221 24.4758 49.4891 -0.349493 -0.0589639 0.934605
-10.1436 24.6673 49.8956 -0.316393 -0.0524495 0.947177
-9.05836 24.9412 50.2726 -0.298883 -0.0551111 0.952526
-7.99387 25.5405 50.6027 -0.270848 -0.0400422 0.961789
-7.13047 26.3499 50.8804 -0.268979 -0.0505869 0.9618
-6.60576 27.3674 51.0447 -0.21923 -0.0352162 0.975037
-6.31517 28.3707 51.1451 -0.215842 -0.0401561 0.975582
-6.10953 29.4563 51.2456 -0.218874 -0.0504309 0.974449
-5.91259 30.6067 51.3494 -0.219852 -0.0480401 0.974346
-5.66348 31.7463 51.4555 -0.217778 -0.042207 0.975085
-5.29237 32.8034 51.5792 -0.211173 -0.0512146 0.97602
-4.77692 33.6661 51.7201 -0.172175 -0.0579486 0.98336
-3.88715 34.6296 51.9071 -0.103228 -0.0440095 0.993634
-2.99246 35.2984 52.0381 -0.101721 -0.0531043 0.993395
-1.59917 35.6705 52.1934 -0.0886932 -0.0469318 0.994929
-0.515878 35.5043 52.2794 -0.0469399 -0.0403253 0.997347
0.396112 35.0533 52.2634 -0.00259704 -0.0465333 0.998913
1.33534 34.4012 52.2337 0.0192761 -0.0470483 0.998495
2.33207 33.7183 52.1592 0.0424767 -0.0475935 0.997963
3.33231 33.1794 52.0869 0.056945 -0.051986 0.996984
4.29956 32.7871 52.0029 0.0673154 -0.0508362 0.996435
5.78157 32.3542 51.8135 0.147637 -0.0724987 0.986381
6.98351 32.0718 51.612 0.148936 -0.0727322 0.986168
8.03641 31.8361 51.382 0.204848 -0.0671404 0.976488
8.9945 31.481 51.1568 0.226997 -0.062609 0.971606
9.80663 30.8829 50.8748 0.290289 -0.061658 0.954948
10.9722 29.4899 50.4193 0.296903 -0.0660187 0.952615
11.4829 28.4949 50.1502 0.335295 -0.0759776 0.939024
11.8565 27.3137 49.9288 0.344221 -0.0763853 0.935709
12.1659 25.9099 49.6883 0.353853 -0.0820213 0.931698
12.735 24.3085 49.3454 0.366783 -0.068258 0.927726
13.3377 23.4211 49.0321 0.375347 -0.0605914 0.924857
14.1872 22.6655 48.6473 0.373316 -0.0517547 0.926259
15.0001 22.0789 48.2118 0.439572 -0.0797023 0.894664
16.2607 21.5294 47.5427 0.46032 -0.0569795 0.885897
17.2778 21.4607 46.9784 0.489491 -0.0397382 0.871102
18.199 21.6777 46.4706 0.498918 -0.0420193 0.865559
19.0723 22.3396 45.9919 0.505673 -0.0478485 0.861397
19.7293 23.0975 45.6499 0.534314 -0.0608518 0.842911
20.2057 24.3795 45.4591 0.520632 -0.0696982 0.850922
20.397 25.553 45.4378 0.526502 -0.0707968 0.847221
20.3463 26.7952 45.5758 0.52891 -0.0727346 0.845553
20.311 27.8487 45.6865 0.530408 -0.0710478 0.84476
20.4894 29.6971 45.7192 0.533103 -0.0626811 0.843725
20.8233 30.7965 45.5998 0.557979 -0.095254 0.824339
21.7451 32.1945 45.1152 0.571386 -0.0805721 0.81669
22.5508 32.8216 44.6036 0.58354 -0.0614898 0.80961
24.0164 33.0814 43.5246 0.602241 -0.0576187 0.796232
25.1572 32.8615 42.6368 0.605438 -0.0473796 0.794481
26.0676 32.7384 41.935 0.612525 -0.0415941 0.789294
26.8643 32.8242 41.303 0.624305 -0.0395302 0.78018
28.0677 33.4392 40.3748 0.625875 -0.0446072 0.778624
28.8542 34.1157 39.7767 0.625413 -0.0523063 0.778501
29.4504 34.9162 39.3622 0.619688 -0.052765 0.783057
30.1737 35.7091 38.8374 0.60952 -0.0423274 0.7915
31.242 35.7033 38.0368 0.607875 -0.0630082 0.791137
32.2914 35.6842 37.1653 0.64063 -0.0680855 0.764762
33.6255 35.6369 36.078 0.622818 -0.0679842 0.779405
34.6992 35.6188 35.1532 0.649533 -0.107639 0.752671
35.5333 35.6159 34.4053 0.668882 -0.108524 0.735404
36.4062 35.547 33.6007 0.673089 -0.116232 0.73037
37.3481 35.4532 32.7167 0.673523 -0.116861 0.72987
38.407 35.311 31.7373 0.684035 -0.110773 0.720705
39.208 35.2807 30.9185 0.714846 -0.106644 0.6911
39.9468 35.5927 30.1783 0.73068 -0.106745 0.674307
40.5424 36.1643 29.6161 0.73523 -0.100703 0.670286
41.0637 37.0024 29.1659 0.736475 -0.072572 0.671878
41.2383 38.1131 29.0208 0.765301 -0.0260243 0.643067
41.2684 39.3921 29.0166 0.758468 -0.0184405 0.651314
41.3269 40.906 28.9684 0.747911 0.00299862 0.663792
41.3522 41.9186 28.9349 0.747999 0.00109213 0.663696
41.3443 42.949 28.9471 0.749917 -0.00556276 0.661508
41.3372 44.1318 28.9654 0.742422 -0.0178044 0.669498
41.3394 45.4137 28.9934 0.732001 -0.00518971 0.681284
41.3403 46.4324 29.0003 0.731985 0.000358728 0.681298
41.3093 47.4591 29.0255 0.729278 -0.00136074 0.684204
41.332 48.9498 29.0148 0.727354 -0.0088587 0.686205
41.5726 50.1605 28.7734 0.726861 -0.00798772 0.686737
42.3029 50.1543 28.0031 0.722585 -0.00710415 0.691245
43.3741 50.1241 26.915 0.704176 -0.00530582 0.710006
44.5322 50.1044 25.777 0.693042 -0.00533053 0.720856
45.3841 50.0514 24.9645 0.689487 -0.00931069 0.724238
46.1917 49.9635 24.2217 0.674044 0.000969513 0.738688
47.4212 49.2949 23.1867 0.626657 0.00155673 0.779293
47.8269 48.3494 22.8468 0.628167 -0.0128289 0.777968
48.2163 47.2393 22.5105 0.630106 -0.0145411 0.776373
48.5586 46.1411 22.2131 0.635794 -0.0121398 0.771754
48.9124 44.7388 21.9409 0.601686 0.0033882 0.798706
49.1259 43.7108 21.7605 0.610495 -0.0182384 0.791809
49.0898 42.1846 21.7826 0.641547 -0.00683658 0.767053
48.7921 40.441 22.0158 0.637392 -0.00349845 0.770517
48.5401 39.4896 22.2297 0.636518 0.000504184 0.771247
47.9741 38.2396 22.6888 0.636636 -0.00366391 0.771145
47.4643 37.209 23.1129 0.635438 0.00726485 0.772118
46.677 36.2064 23.7631 0.63138 -0.00591961 0.77545
46.0065 35.6466 24.3038 0.632323 -0.00572362 0.774681
45.2347 35.2226 24.935 0.658945 -0.00694445 0.751476
44.5602 34.7868 25.5513 0.675285 -0.0261929 0.737018
43.8656 34.3431 26.1579 0.669441 -0.0326999 0.742145
43.1572 33.9266 26.7822 0.680792 -0.0362612 0.731576
42.4249 33.5678 27.4484 0.682277 -0.0351426 0.730248
41.6682 33.4667 28.151 0.698299 -0.0428191 0.714137
40.4459 33.4103 29.3933 0.712819 -0.0520332 0.699415
39.6749 33.2707 30.1772 0.718056 -0.054334 0.693861
38.7546 33.1078 31.0601 0.68249 -0.0981475 0.724181
38.0002 32.8822 31.725 0.674493 -0.0961287 0.731996
37.2617 32.4151 32.3457 0.683753 -0.077712 0.725561
36.579 31.7924 32.9245 0.684939 -0.0781356 0.724398
35.9634 31.0076 33.4019 0.666049 -0.0961975 0.739673
35.377 30.128 33.8088 0.664415 -0.0913491 0.741692
34.8454 29.3216 34.1955 0.66425 -0.0814976 0.743054
34.1674 28.5084 34.7122 0.664461 -0.0736228 0.743647
33.3899 27.932 35.3474 0.66161 -0.0711731 0.746462
32.4882 27.63 36.12 0.666023 -0.0687531 0.742756
31.4924 27.5323 37.0039 0.664588 -0.0667359 0.744219
30.5998 27.4963 37.7809 0.654006 -0.0667691 0.753535
29.6626 27.275 38.5667 0.646293 -0.0628403 0.760492
28.7301 26.7849 39.3106 0.63256 -0.0636008 0.771797
27.8279 26.0573 39.9752 0.62316 -0.0607584 0.77973
27.119 25.1852 40.4946 0.632494 -0.0489599 0.773016
26.1068 23.7345 41.1903 0.603752 -0.0615902 0.79479
25.3991 23.0995 41.6774 0.600936 -0.0633763 0.79678
24.5703 22.7125 42.2715 0.60115 -0.0603575 0.796847
23.5413 22.5034 43.0352 0.602219 -0.0559756 0.796366
22.1889 22.4183 43.9967 0.558309 -0.0645628 0.827116
21.0269 22.1269 44.7588 0.546607 -0.0484272 0.835979
19.8583 20.9773 45.4546 0.52427 -0.0460776 0.850024
19.4037 19.744 45.6677 0.507221 -0.0364991 0.861043
19.2231 18.7584 45.7231 0.539225 -0.0479592 0.840774
19.0143 17.1479 45.7571 0.519504 -0.0540902 0.852731
18.8164 15.6919 45.8057 0.515665 -0.0469862 0.855406
18.5116 14.5567 45.9277 0.50522 -0.0388468 0.862116
17.9106 13.5238 46.2379 0.49796 -0.0206975 0.866895
17.2974 12.5769 46.5559 0.489987 -0.0246984 0.87138
16.7066 11.3733 46.8501 0.46958 -0.0371415 0.881798
16.3403 10.3824 46.9851 0.452329 -0.026171 0.891277
16.1466 8.61727 47.0405 0.482964 -0.0315402 0.875033
16.3539 7.10936 46.8856 0.484692 -0.0222734 0.874401
16.5751 6.06641 46.7482 0.48871 -0.00393205 0.872437
16.7483 4.91887 46.6454 0.494552 -0.00998919 0.869049
16.6967 3.71606 46.6366 0.485237 -0.0338246 0.873728
16.3952 2.60823 46.7686 0.487379 -0.00326047 0.873183
15.8941 1.69831 47.0429 0.474206 -0.010964 0.880225
14.5699 0.631764 47.7151 0.445466 -0.0237776 0.894723
13.2807 0.259658 48.2929 0.399066 -0.0169481 0.91673
11.7736 0.555028 48.9171 0.370143 -0.00822502 0.928938
10.7815 1.1687 49.2924 0.33899 -0.0118743 0.940714
10.0764 1.95528 49.5479 0.323206 -0.0142014 0.946216
9.54298 2.94264 49.724 0.277621 0.00210025 0.960688
9.32774 4.50473 49.8017 0.275802 -0.0289998 0.960776
9.51036 5.79206 49.7909 0.282275 -0.0277232 0.958912
10.2003 7.07306 49.5962 0.301143 -0.0127253 0.953494
10.8139 7.86665 49.4132 0.319827 -0.0043348 0.947214
11.8223 9.319 49.0395 0.340901 -0.00928431 0.939905
12.2606 10.2452 48.8886 0.361161 -0.0143822 0.932393
12.531 11.2165 48.7986 0.361484 -0.0132506 0.932284
12.6073 12.2447 48.7917 0.346867 -0.0298185 0.93744
12.3759 13.7011 48.9343 0.355531 -0.0417483 0.933732
12.0914 14.9375 49.0973 0.356741 -0.0423618 0.933241
11.8297 15.9153 49.2485 0.353814 -0.0586767 0.933473
11.2208 17.6248 49.5453 0.322106 -0.0348167 0.94598
10.7958 18.5476 49.7328 0.317069 -0.0513296 0.946998
9.80446 19.9032 50.1377 0.308078 -0.0593682 0.949455
8.83057 20.7592 50.4358 0.25092 -0.0481356 0.966671
7.98093 21.2889 50.6952 0.254551 -0.0678542 0.964674
6.53543 21.9498 51.0715 0.177012 -0.046599 0.982915
5.58024 22.3701 51.2457 0.167464 -0.0325193 0.985339
4.6856 22.8015 51.3656 0.118016 -0.0243214 0.992713
3.29063 23.5289 51.5695 0.0792226 -0.0630867 0.99457
2.17702 23.9634 51.6591 0.0529652 -0.0675664 0.996307
1.1968 24.2127 51.6933 0.00330202 -0.0391513 0.999084
-0.404808 24.4053 51.677 -0.00636187 -0.0535061 0.998419
-1.44841 24.4558 51.6441 -0.0340009 -0.0290148 0.999
-2.33482 24.4959 51.6157 -0.0608417 -0.0266545 0.997382
-2.53229 23.6946 51.5817 -0.0627421 -0.0267816 0.997314
-3.78139 23.8112 51.4284 -0.141223 -0.0619157 0.988033
-4.8039 23.7502 51.2632 -0.200179 -0.0211109 0.979526
-6.43474 22.8678 50.8907 -0.205203 -0.0371297 0.978013
-7.03233 22.0097 50.7008 -0.234502 -0.0531689 0.97066
-7.42233 21.008 50.5487 -0.244468 -0.0646371 0.96741
-7.66728 19.851 50.3966 -0.254478 -0.0728671 0.964329
-7.88194 18.6848 50.3192 -0.278151 -0.0301468 0.959701
-8.48378 17.3918 50.0692 -0.297956 -0.0443631 0.953548
-9.11168 16.1526 49.8312 -0.291299 -0.0308819 0.956133
-9.82835 14.6634 49.541 -0.324072 -0.0347789 0.945348
-10.2948 13.5777 49.3329 -0.316502 -0.0313641 0.947969
-10.4637 12.5531 49.2577 -0.31341 -0.0217449 0.949363
-10.4686 11.5355 49.2296 -0.323429 -0.0148814 0.946039
-10.2846 10.3145 49.2559 -0.379808 -0.0468531 0.923878
-10.0732 9.31468 49.286 -0.368977 -0.0309629 0.928683
-9.94246 7.92357 49.3033 -0.352484 -0.0338648 0.935204
-9.81506 6.6396 49.3318 -0.34433 -0.00535633 0.938834
-9.64442 4.85553 49.3837 -0.348443 -0.0112208 0.937237
-9.46885 3.79547 49.4262 -0.316036 -0.0106922 0.948668
-9.26095 2.71177 49.4792 -0.323906 -0.00840595 0.945941
-9.03222 1.73219 49.5462 -0.310543 0.00836753 0.950523
-8.83217 0.408931 49.6236 -0.300474 0.00278299 0.953709
-8.73733 -1.37225 49.624 -0.289042 -0.0152629 0.957195
-8.98781 -2.4244 49.5519 -0.307964 -0.0100395 0.951055
-9.8201 -3.90638 49.2612 -0.32454 0.0195023 0.945662
-10.5165 -4.66766 48.9978 -0.362196 0.00484044 0.932085
-11.1121 -5.44027 48.7724 -0.381487 -0.000571861 0.924141
-11.5543 -6.33596 48.5708 -0.39703 0.000139173 0.917751
-11.9374 -8.01896 48.4225 -0.389315 0.00140627 0.921047
-11.7074 -9.13847 48.5461 -0.395436 0.0216167 0.918239
-11.0499 -10.0827 48.8521 -0.396699 0.0235869 0.917644
-10.2474 -10.8834 49.1801 -0.352018 0.0152184 0.935797
-9.54932 -11.6088 49.4514 -0.324609 0.0149056 0.945532
-8.92934 -12.4335 49.676 -0.308641 0.0312347 0.950666
-8.43078 -13.4263 49.87 -0.284704 0.0186207 0.958031
-8.07577 -14.6283 49.9902 -0.281856 0.0116038 0.959387
-7.97587 -15.9398 50.0514 -0.280723 0.0321167 0.959251
-8.25429 -17.0638 50.004 -0.259131 0.0337328 0.965148
-8.66689 -18.1053 49.9126 -0.318429 0.0340571 0.947335
-9.26758 -19.1232 49.751 -0.310991 0.0437061 0.949407
-10.4182 -20.0355 49.3781 -0.36343 0.0370206 0.930806
-11.5016 -20.522 48.9434 -0.398352 0.0308626 0.916711
-12.4734 -20.5761 48.5226 -0.393881 0.0513195 0.917727
-13.6881 -20.3811 47.96 -0.447509 0.0411014 0.893334
-14.6191 -19.9845 47.474 -0.448293 0.0420856 0.892896
-15.5397 -19.056 46.9401 -0.4962 0.038226 0.867329
-16.3584 -18.0317 46.434 -0.504217 0.0318099 0.862972
-16.8184 -16.9837 46.1199 -0.508165 0.0357693 0.860516
-17.1241 -15.4383 45.8725 -0.50897 0.0383138 0.85993
-17.103 -14.2239 45.8526 -0.511553 0.0178509 0.859066
-16.8236 -13.0428 45.9908 -0.502926 0.0226875 0.864001
-16.2369 -11.6595 46.2946 -0.504206 0.0207281 0.863326
-15.3416 -10.4756 46.7802 -0.490947 0.0113969 0.871111
-14.7519 -9.55069 47.0816 -0.476866 0.0226044 0.878685
-14.1954 -8.08153 47.3549 -0.457835 0.01618 0.888889
-14.5182 -6.55101 47.166 -0.455267 0.00790134 0.890315
-15.0406 -5.68631 46.8927 -0.45579 0.00263329 0.890079
-16.0577 -4.41859 46.3089 -0.509871 0.0121887 0.860165
-16.6739 -3.60279 45.9502 -0.516129 -0.000900264 0.856418
-17.2358 -2.42257 45.603 -0.524321 0.0002028 0.851517
-17.6872 -1.18729 45.3295 -0.523223 -0.0146656 0.852067
-17.921 -0.0166829 45.2075 -0.561666 -0.0161257 0.82714
-18.0891 1.57725 45.1066 -0.540865 -0.000693949 0.841109
-18.1734 2.64184 45.0578 -0.543618 -0.0161988 0.839176
-18.316 3.77909 44.9872 -0.543208 -0.0164829 0.839436
-18.505 4.89964 44.892 -0.544559 -0.0247556 0.838357
-18.6169 5.91673 44.8492 -0.546005 -0.0233166 0.837455
-18.6892 7.49101 44.8362 -0.544594 -0.0160452 0.838546
-18.6084 8.79291 44.9271 -0.535676 -0.0256148 0.844032
-18.129 10.3786 45.2795 -0.53169 -0.0311202 0.846357
-17.6401 11.3729 45.6254 -0.525387 -0.0370695 0.850056
-17.1173 12.4296 45.9978 -0.520071 -0.0404952 0.853129
-16.6904 13.516 46.3018 -0.513103 -0.03729 0.857516
-16.451 14.4922 46.4747 -0.511871 -0.0249964 0.858699
-16.3695 15.597 46.5578 -0.49486 -0.0528684 0.867358
-16.3936 16.8908 46.621 -0.496809 -0.0525367 0.866268
-16.52 17.9361 46.6149 -0.499887 -0.0524384 0.86449
-16.6321 19.0327 46.6109 -0.504408 -0.047711 0.862144
-16.4938 20.7377 46.7854 -0.506992 -0.0454212 0.860752
-15.9552 22.4224 47.1908 -0.499634 -0.0561155 0.864372
-15.2305 23.618 47.6901 -0.492238 -0.0677206 0.86782
-14.4759 24.5092 48.1428 -0.418094 -0.060885 0.906287
-13.6806 24.9891 48.5276 -0.410637 -0.0567663 0.910008
-12.4672 25.2218 49.061 -0.390716 -0.0797673 0.916808
-11.4293 25.3038 49.4991 -0.345975 -0.0546528 0.935736
-9.90007 25.5888 50.0203 -0.317861 -0.0416515 0.947222
-8.96456 25.88 50.3478 -0.293501 -0.0442568 0.954573
-8.04097 26.5416 50.6362 -0.267752 -0.0451474 0.962429
-7.42026 27.4932 50.8654 -0.246676 -0.0440164 0.967738
-6.92823 29.1669 51.0463 -0.221273 -0.0470008 0.974075
-6.76795 30.2644 51.1391 -0.22177 -0.0483013 0.9739
-6.56049 31.4442 51.2417 -0.221607 -0.0456351 0.974068
-6.25166 32.5969 51.3608 -0.215168 -0.0524237 0.97511
-5.82199 33.6071 51.5187 -0.198237 -0.0568665 0.978422
-5.27295 34.4366 51.6645 -0.187793 -0.0473684 0.981066
-4.11181 35.6001 51.9126 -0.152318 -0.0184601 0.987766
-3.16158 36.2006 52.045 -0.123035 -0.0214305 0.99217
-1.46464 36.5659 52.2417 -0.0848561 -0.0421657 0.995499
-0.3751 36.3705 52.3153 -0.0132351 -0.0389154 0.999143
1.27805 35.4838 52.2858 0.018133 -0.0455207 0.998583
2.18932 34.7868 52.2169 0.0418227 -0.0485411 0.997945
3.13875 34.1659 52.1466 0.0556489 -0.0467302 0.997264
4.10758 33.7148 52.0603 0.0681384 -0.0429792 0.99675
5.06767 33.3707 51.9781 0.0862735 -0.0420937 0.995245
6.65626 32.9763 51.738 0.142095 -0.0896251 0.985786
7.84847 32.7173 51.4819 0.207875 -0.0719058 0.975491
8.83505 32.5013 51.2599 0.226675 -0.0630678 0.971665
9.78745 32.0254 50.9854 0.263151 -0.0756935 0.961516
10.8045 31.0774 50.5967 0.278619 -0.0927302 0.955914
11.5308 30.1994 50.2884 0.313984 -0.0722188 0.946644
12.3118 28.5588 49.8597 0.335288 -0.0860272 0.938039
12.7064 27.1715 49.594 0.356745 -0.0833626 0.930465
12.9151 26.0855 49.4191 0.35404 -0.0822029 0.931611
13.374 24.785 49.1201 0.374088 -0.0744708 0.924378
13.9681 23.859 48.8077 0.377865 -0.0718138 0.923068
15.24 22.877 48.1651 0.43957 -0.0797032 0.894665
16.1267 22.397 47.6678 0.475071 -0.0510435 0.878461
17.1973 22.242 47.0648 0.493123 -0.0561331 0.868146
18.0944 22.5194 46.574 0.490838 -0.0591218 0.869237
19.1786 23.7034 46.0356 0.516126 -0.0678276 0.853799
19.6958 25.0593 45.8308 0.521933 -0.0724316 0.849904
19.6741 26.8251 45.9975 0.527317 -0.07766 0.846105
19.6132 27.9029 46.1291 0.531389 -0.0711683 0.844132
19.7793 29.5394 46.178 0.54777 -0.0806365 0.832689
20.0565 30.7084 46.1011 0.554054 -0.0871565 0.827844
20.5011 31.6931 45.9214 0.557937 -0.0946343 0.824432
21.5414 33.0593 45.3368 0.573611 -0.0769299 0.815506
22.6568 33.7569 44.5871 0.592898 -0.0531444 0.803522
23.5387 33.9648 43.9501 0.597309 -0.0563242 0.800009
24.3331 33.8845 43.334 0.610275 -0.0506031 0.790572
25.6618 33.5829 42.2944 0.612601 -0.0411311 0.789262
26.4998 33.5424 41.6309 0.619274 -0.0362348 0.784338
27.4406 33.9129 40.8989 0.621544 -0.0423312 0.782234
28.3519 34.6222 40.2133 0.621743 -0.0455085 0.781893
28.9182 35.365 39.8101 0.619339 -0.0479356 0.783659
29.6967 36.7239 39.2751 0.620998 -0.0456296 0.782482
30.8942 36.5395 38.3399 0.599709 -0.0351229 0.799438
32.2127 36.4847 37.2978 0.639138 -0.0440412 0.767829
33.0476 36.4585 36.6105 0.628751 -0.0652791 0.774832
34.0228 36.4482 35.8207 0.63498 -0.0643684 0.769842
34.9273 36.4458 35.0731 0.640863 -0.0652157 0.764861
35.9802 36.4316 34.1282 0.667502 -0.107164 0.736811
36.7553 36.3625 33.408 0.672873 -0.115168 0.730738
37.6212 36.2717 32.604 0.663913 -0.108936 0.739757
38.8231 36.2365 31.4603 0.705636 -0.100693 0.701251
39.5609 36.2916 30.708 0.71899 -0.112027 0.685538
40.266 36.8584 30.0278 0.738562 -0.109205 0.665281
40.7097 38.0777 29.6484 0.766436 -0.0289176 0.641641
40.7634 39.1326 29.6139 0.766903 -0.0158282 0.641568
40.7604 40.2534 29.6216 0.756704 0.00322998 0.653746
40.8447 42.1245 29.5098 0.75676 0.00386754 0.653682
40.8252 43.2969 29.5393 0.752394 -0.00572634 0.658688
40.8195 44.4452 29.557 0.747986 0.00349416 0.663601
40.805 45.5231 29.5697 0.738903 -0.00212375 0.673808
40.7791 47.0207 29.596 0.731616 0.00731061 0.681676
40.7486 48.1845 29.6239 0.730092 -0.00946186 0.683145
40.7403 49.8641 29.6679 0.735914 -0.0106823 0.676984
40.7466 50.9579 29.6651 0.730371 0.00523485 0.683025
41.5676 51.1412 28.7795 0.735767 7.00569e-05 0.677234
42.2837 50.9512 28.0222 0.721884 0.0040429 0.692001
43.3093 50.9099 26.9819 0.703629 0.00109558 0.710567
44.0777 50.8929 26.2214 0.702491 5.83111e-05 0.71169
44.9161 50.8545 25.418 0.689268 0.00675395 0.724475
45.7729 50.7995 24.6048 0.676339 -0.00577075 0.736262
46.5756 50.7177 23.9116 0.651798 -0.0239618 0.758014
47.8161 50.0363 22.8672 0.632317 0.00606222 0.774642
48.3485 48.8794 22.431 0.633344 -0.00395958 0.773819
48.6955 47.9452 22.1328 0.632789 -0.0116775 0.774236
49.0254 46.959 21.8568 0.607916 -0.00253238 0.793996
49.4126 45.6099 21.5609 0.600348 0.00462734 0.799719
49.6633 44.5768 21.3782 0.596578 -0.0216415 0.8022
49.8152 43.445 21.2423 0.593665 -0.0292955 0.804118
49.7573 42.2666 21.2498 0.606278 -0.00848837 0.795206
49.5008 40.893 21.4329 0.599104 0.00187253 0.800579
49.3153 39.7643 21.5897 0.61467 0.0112448 0.788411
48.9184 38.6239 21.9203 0.617696 0.013622 0.786059
48.4923 37.6718 22.2869 0.613837 0.0155122 0.789154
47.6523 36.2075 22.9677 0.634159 0.00338623 0.773183
46.9876 35.4955 23.506 0.630513 0.00260419 0.77616
46.2857 34.9028 24.0726 0.632406 0.000111158 0.774624
45.2141 34.2987 24.9584 0.637264 0.00170476 0.770635
44.2536 33.6979 25.7873 0.667374 -0.0160954 0.744549
43.5544 33.2474 26.4049 0.669675 -0.0141738 0.742513
42.8604 32.8646 27.0289 0.679275 -0.0169547 0.733688
42.1299 32.5578 27.6981 0.679204 -0.0169402 0.733754
41.065 32.5965 28.7003 0.713123 -0.0546232 0.698907
40.0833 32.489 29.694 0.70294 -0.0698659 0.707521
39.3582 32.3861 30.3789 0.690747 -0.0981834 0.7164
37.9541 31.988 31.6499 0.679367 -0.0879582 0.728429
37.176 31.4447 32.3225 0.683753 -0.077712 0.725561
36.5847 30.7693 32.8084 0.676593 -0.0895092 0.73074
36.0425 29.9797 33.1963 0.663608 -0.0808359 0.743699
35.4672 29.0081 33.6062 0.664051 -0.0794703 0.743451
34.8988 28.225 34.0335 0.664605 -0.0650618 0.744357
34.1542 27.5025 34.6329 0.65993 -0.0688701 0.748164
33.0501 26.9396 35.5549 0.660188 -0.065403 0.748239
32.1367 26.769 36.3559 0.666047 -0.0676605 0.742835
31.3736 26.7076 37.0346 0.662366 -0.069622 0.74592
30.6084 26.7246 37.7067 0.65413 -0.0652358 0.753564
29.4778 26.3726 38.6462 0.644001 -0.0665082 0.762126
28.7572 25.961 39.216 0.642292 -0.0674478 0.763486
28.0766 25.3896 39.7228 0.628849 -0.0561416 0.775445
27.5378 24.6257 40.1156 0.634519 -0.0557625 0.770893
27.0108 23.7871 40.4878 0.626355 -0.0628901 0.776914
26.0363 22.6118 41.1523 0.617559 -0.0607382 0.784104
25.2439 22.0689 41.7168 0.601356 -0.0570876 0.796939
24.4083 21.7765 42.327 0.603181 -0.0563553 0.795611
23.586 21.6618 42.9414 0.599838 -0.0585448 0.797977
22.5207 21.5898 43.7088 0.563518 -0.0543762 0.824246
21.4865 21.4775 44.4166 0.558225 -0.0490055 0.828163
20.5428 20.6412 44.9861 0.548426 -0.0497861 0.834714
20.142 19.7202 45.1937 0.540362 -0.0533064 0.839742
19.7709 17.9245 45.3288 0.542409 -0.044255 0.838948
19.6538 16.5648 45.3284 0.534187 -0.0442685 0.844184
19.4971 15.371 45.3597 0.535959 -0.0357906 0.843378
18.918 13.6586 45.6487 0.508796 -0.0273951 0.860346
18.2861 12.7716 46.0032 0.505323 -0.0165075 0.862772
17.7454 11.9015 46.2849 0.489628 -0.0270539 0.871508
17.1638 10.4357 46.5597 0.490429 -0.0345545 0.87079
16.9056 9.35194 46.6576 0.480333 -0.0391209 0.876213
16.9265 7.76401 46.5852 0.484958 -0.0239062 0.874211
17.1388 6.72196 46.4405 0.486722 -0.0225193 0.873265
17.379 5.70386 46.2946 0.496643 -0.00885355 0.867875
17.513 4.51958 46.1965 0.502892 -0.0170425 0.864177
17.2307 2.73272 46.3013 0.501469 -0.0294665 0.864668
16.7787 1.614 46.5511 0.486147 -0.00278201 0.873869
15.9869 0.682056 46.9779 0.464032 -0.00994793 0.885762
15.2513 0.110861 47.3543 0.457535 -0.0177365 0.888989
14.2074 -0.482494 47.8604 0.442831 -0.0262776 0.896218
12.8964 -0.566447 48.4399 0.409376 -0.00368351 0.912093
11.8368 -0.328746 48.8905 0.377295 0.00457122 0.926081
10.7962 0.138734 49.2813 0.341745 0.000107656 0.939787
9.98045 0.756578 49.5709 0.326466 -0.00530076 0.945194
9.34409 1.5722 49.7838 0.276184 0.00232125 0.960977
8.81385 2.52767 49.9267 0.258282 -0.00639035 0.966047
8.51428 3.75881 50.0135 0.258638 -0.00686699 0.965947
8.52719 4.91812 50.049 0.282009 -0.0340901 0.958806
8.74643 6.02444 50.0202 0.279265 -0.016994 0.960062
9.23933 7.0611 49.8972 0.286797 -0.0137732 0.957832
9.83193 7.87978 49.7221 0.29649 -0.0113825 0.954968
10.9464 9.30034 49.3563 0.33618 -0.00972392 0.941583
11.4377 10.1911 49.2031 0.339699 -0.0249828 0.940202
11.7746 11.3652 49.093 0.357778 -0.0129411 0.933715
11.7694 12.6529 49.1207 0.358077 -0.0285092 0.933245
11.5154 13.9621 49.2735 0.355416 -0.0419893 0.933764
11.2065 15.2463 49.4508 0.357496 -0.0440925 0.932873
10.9192 16.2032 49.6116 0.337342 -0.0420066 0.94013
10.3001 17.7252 49.8609 0.309235 -0.0266641 0.950521
9.78465 18.7145 50.0735 0.289069 -0.055667 0.955672
9.1117 19.4269 50.3068 0.267071 -0.0446132 0.962635
8.00973 20.3759 50.6325 0.239846 -0.037866 0.970069
7.12715 20.8544 50.8883 0.220296 -0.0653638 0.972657
5.65635 21.4364 51.2069 0.177962 -0.0446874 0.982809
4.65778 21.9411 51.3479 0.117467 -0.0260993 0.992732
3.70229 22.4602 51.4749 0.104983 -0.0299747 0.993949
2.51794 23.0217 51.577 0.0667805 -0.0423115 0.996361
1.44994 23.3572 51.6577 0.0370075 -0.0514163 0.997719
0.392122 23.5304 51.6559 -0.0117599 -0.0335631 0.999362
-1.32892 23.644 51.6231 -0.0308735 -0.0349458 0.998912
-2.0058 23.6632 51.6001 -0.0370619 -0.0328531 0.998773
-1.90939 22.8491 51.5741 -0.0707116 -0.0409918 0.996218
-0.820633 22.7514 51.6074 -0.0296261 -0.0360516 0.99891
0.429946 22.72 51.629 -0.0176403 -0.0277284 0.999446
1.91702 22.3818 51.6106 0.0540098 -0.0191437 0.998234
2.88098 22.0069 51.5371 0.0735397 -0.0129102 0.997205
3.82091 21.4796 51.4327 0.100858 -0.0263342 0.994541
4.81463 20.9953 51.3052 0.118007 -0.0252475 0.992689
6.14935 20.1256 51.0381 0.196397 -0.0501148 0.979243
7.81048 19.5448 50.6489 0.230797 -0.047127 0.97186
9.04007 18.2178 50.2652 0.268013 -0.0358711 0.962581
9.58257 17.3812 50.0743 0.299958 -0.0323172 0.953405
9.97516 16.3643 49.9249 0.302287 -0.0261976 0.952846
10.4011 15.152 49.7308 0.318355 -0.0589046 0.946139
10.7954 13.4161 49.5219 0.340936 -0.0308108 0.939393
10.9995 12.0943 49.3979 0.350104 -0.0151778 0.936556
10.8946 10.964 49.4166 0.318844 -0.027672 0.947268
10.0579 9.37227 49.6738 0.298708 -0.0235751 0.953821
9.26529 8.59592 49.902 0.282407 -0.000695619 0.959294
8.63363 7.80186 50.0793 0.257817 -0.00912713 0.966143
8.13081 6.89468 50.2087 0.258192 -0.00420798 0.966083
7.85254 5.92439 50.2785 0.233118 -0.0318132 0.971614
7.68492 4.17011 50.2446 0.253083 -0.0442127 0.966432
7.61964 3.1757 50.2496 0.259791 -0.00788746 0.965633
8.05525 2.24452 50.1266 0.25838 0.00360219 0.965989
8.59269 1.23797 49.9945 0.262518 0.0139347 0.964824
9.18788 0.180106 49.817 0.287611 -0.0124817 0.957661
10.0912 -0.352857 49.5267 0.327356 -0.00644399 0.944878
10.9177 -0.856859 49.2346 0.340084 -0.00740348 0.940358
11.8566 -1.23529 48.888 0.367502 0.00101414 0.93
13.3543 -1.50644 48.241 0.424731 0.0108369 0.90525
14.9021 -1.10967 47.5053 0.429604 0.00211869 0.903015
15.8146 -0.475751 47.0558 0.456708 -0.0129044 0.889463
17.1649 0.680389 46.3342 0.489461 0.00343384 0.871981
17.6897 1.59186 46.0398 0.501281 -0.00269754 0.865235
17.9861 2.61662 45.8565 0.505468 -0.0115344 0.862531
18.2224 4.03343 45.7682 0.506688 -0.0305403 0.861573
18.2623 5.23255 45.7707 0.521455 -0.00946816 0.853222
18.0382 6.43635 45.9246 0.510997 -0.0262665 0.859112
17.5909 8.25353 46.2254 0.502143 -0.0298608 0.864183
17.7143 9.99653 46.2297 0.49307 -0.036108 0.869239
18.2684 10.8796 45.952 0.494071 -0.0366268 0.868649
18.5425 11.8361 45.8348 0.497649 -0.0207616 0.867076
19.1584 12.6357 45.4844 0.546586 -0.0443533 0.836217
19.7649 13.4449 45.1293 0.557993 -0.0400198 0.8288
20.0542 14.4963 44.9804 0.537993 -0.0229119 0.842638
20.3241 16.0678 44.8717 0.543699 -0.0431976 0.838118
20.4594 17.7967 44.8744 0.551001 -0.048656 0.833085
20.6195 18.9084 44.8333 0.541602 -0.0495105 0.839163
21.0571 19.9612 44.6078 0.549365 -0.0491344 0.834136
22.139 20.7629 43.9265 0.569693 -0.0539962 0.820042
23.3992 20.809 43.0189 0.594076 -0.0692319 0.801424
24.3867 20.9086 42.2821 0.60281 -0.0600325 0.795614
25.5255 21.3293 41.449 0.604345 -0.0594465 0.794501
26.2718 21.7508 40.9124 0.61073 -0.0547122 0.7899
27.1063 22.7564 40.3214 0.616839 -0.0593879 0.784786
27.8721 23.9332 39.7899 0.635548 -0.0580741 0.769873
28.4777 24.7506 39.3492 0.638685 -0.0564732 0.76739
29.2427 25.4635 38.7643 0.641555 -0.057997 0.764876
30.0291 25.7685 38.1281 0.651074 -0.0631217 0.756299
31.0745 25.9538 37.2261 0.658485 -0.0703441 0.749299
32.1381 25.9076 36.2765 0.663815 -0.0638909 0.74515
33.1379 26.0965 35.4076 0.661251 -0.0612726 0.747658
33.8707 26.4108 34.7869 0.660483 -0.0619185 0.748284
35.2125 27.3547 33.6793 0.661257 -0.0616768 0.74762
35.8767 28.4093 33.18 0.659302 -0.0675811 0.748819
36.5254 29.5673 32.7216 0.660612 -0.0771623 0.746735
37.2389 30.501 32.1618 0.683898 -0.0799551 0.72518
38.2053 31.2375 31.332 0.684135 -0.0801925 0.724931
39.2636 31.5531 30.3658 0.685761 -0.0851333 0.722831
40.3998 31.7124 29.2963 0.692526 -0.0851074 0.716355
41.2622 31.7159 28.4356 0.688241 -0.0403263 0.723658
42.0685 31.701 27.7144 0.665093 -0.0278495 0.746214
42.8954 31.992 26.9818 0.672559 -0.0160985 0.739856
43.9627 32.4572 26.0219 0.669355 -0.0139368 0.742806
44.6848 32.9814 25.3977 0.639647 0.000254359 0.768669
45.4067 33.5097 24.797 0.638676 -0.000909015 0.769473
46.3393 34.0732 24.0297 0.632867 0.00101906 0.774251
47.1457 34.6162 23.3845 0.612858 -0.00488126 0.790094
47.8253 35.2349 22.835 0.612731 0.0309555 0.789685
48.417 35.9257 22.3513 0.603401 0.0213571 0.797119
48.89 36.8023 21.9815 0.610693 0.00102745 0.791867
49.4449 38.0575 21.5364 0.611475 0.0230947 0.790905
49.9961 38.9381 21.0991 0.588613 0.0181827 0.808204
50.0261 40.064 21.0568 0.591013 0.0110904 0.806583
50.2391 41.2895 20.8844 0.58916 0.00999873 0.807943
50.5526 42.5441 20.6542 0.59466 -0.0188611 0.803673
50.417 44.339 20.8278 0.593197 -0.0256825 0.804555
50.0774 45.7207 21.0657 0.592382 0.0106596 0.805584
49.809 46.7739 21.2615 0.600075 0.000937418 0.799943
49.4703 47.7879 21.5158 0.613519 0.00741684 0.789587
49.2184 48.8971 21.7173 0.63527 1.39523e-05 0.772238
48.7887 49.8067 22.0643 0.637732 0.00826221 0.770209
48.3074 50.6309 22.4524 0.638332 0.0101262 0.769695
47.0742 51.4533 23.492 0.651072 -0.00942713 0.758954
46.1809 51.5456 24.2616 0.652127 -0.00781999 0.758069
45.3292 51.6164 25.02 0.664127 -0.0196918 0.74736
44.5321 51.6911 25.7753 0.695467 0.00342863 0.718484
43.745 51.7568 26.5502 0.701536 -0.00130873 0.712632
43.0186 51.8292 27.2684 0.708912 -4.09377e-05 0.705255
42.2269 51.9212 28.0761 0.721025 0.00304075 0.692817
40.9123 51.9911 29.476 0.729077 0.0108011 0.684343
40.1211 51.8713 30.3039 0.720469 0.0171347 0.693273
39.3894 51.7872 31.0492 0.696851 0.0213675 0.716603
38.5473 52.13 31.833 0.684304 0.0124409 0.729091
37.7945 52.2144 32.5432 0.687197 0.00791179 0.726428
37.0586 52.4524 33.2277 0.679846 0.0155992 0.733182
35.7184 52.2048 34.428 0.655117 0.00539509 0.755507
34.9239 52.137 35.1149 0.650031 0.00306235 0.759883
33.8973 51.7577 35.9735 0.633619 -0.00403159 0.773621
34.134 50.7714 35.7796 0.634684 0.00372523 0.77276
35.1568 50.4325 34.9237 0.646719 0.00472175 0.762713
35.9342 50.7005 34.2621 0.649129 0.00904419 0.760607
36.7616 50.4359 33.5431 0.671931 0.0110666 0.74029
37.4334 50.8175 32.9031 0.685485 0.0136515 0.727958
38.2622 50.8111 32.1231 0.68469 0.0132785 0.728713
38.9991 50.6835 31.4347 0.683249 0.013016 0.730069
40.0049 50.3552 30.4758 0.733871 0.0166953 0.678652
40.2417 49.3924 30.21 0.738129 -0.0142022 0.674471
40.1922 47.9098 30.2178 0.735304 -0.0225248 0.677363
40.2215 46.904 30.1836 0.723429 0.00864599 0.690306
40.2394 45.1196 30.1889 0.741632 0.0070779 0.670705
40.2383 43.932 30.2155 0.749007 0.00504142 0.662434
40.2616 42.863 30.1816 0.757794 0.00355526 0.652484
40.3619 41.6804 30.0714 0.75676 0.00386754 0.653682
40.1497 40.5376 30.3278 0.757383 0.00361584 0.652957
40.3166 38.7302 30.1384 0.761916 -0.00720134 0.647531
40.1129 37.7781 30.3506 0.756617 -0.0659145 0.648282
39.1087 37.3412 31.3245 0.707665 -0.109398 0.697999
38.0018 37.1246 32.3718 0.679639 -0.102661 0.726278
37.0675 37.1665 33.2365 0.676624 -0.0947709 0.730174
36.1459 37.2328 34.0866 0.668129 -0.0960597 0.737796
35.3423 37.2821 34.7906 0.648793 -0.0653754 0.758123
34.5034 37.3523 35.5048 0.629334 -0.0733859 0.773658
33.6195 37.4303 36.2353 0.629448 -0.0651072 0.774272
32.3726 37.2768 37.2121 0.618547 -0.0612453 0.783357
31.2895 37.2579 38.0706 0.602226 -0.0326216 0.797659
30.4458 37.5414 38.7182 0.618986 -0.0325145 0.784414
29.3934 37.9489 39.5836 0.622377 -0.0323487 0.782045
28.8723 36.6545 39.9247 0.617492 -0.0407856 0.7855
28.1379 35.3327 40.4276 0.621696 -0.0486948 0.781744
27.3766 34.8386 41.0026 0.621759 -0.0481748 0.781725
26.2796 34.344 41.8418 0.619381 -0.0422993 0.783927
25.4963 34.5196 42.4712 0.61908 -0.0487324 0.783815
24.6353 34.6612 43.1505 0.610878 -0.050963 0.790082
23.7626 34.8187 43.8337 0.610029 -0.050453 0.790771
22.8458 34.6721 44.5208 0.593602 -0.0676851 0.801908
22.0221 34.3788 45.106 0.589864 -0.0653927 0.804826
20.7526 33.3491 45.9199 0.572904 -0.084735 0.815213
20.1453 32.5919 46.2648 0.55659 -0.0914308 0.825575
19.6944 31.6479 46.4529 0.545262 -0.0931669 0.833072
19.3701 30.707 46.5604 0.554054 -0.0871565 0.827844
19.0513 29.1984 46.6144 0.531488 -0.0862626 0.842586
18.9311 27.9774 46.5731 0.538729 -0.0780541 0.838853
19.0579 26.4224 46.345 0.519099 -0.079268 0.85095
18.9345 25.2124 46.3115 0.5215 -0.0751675 0.849933
18.4069 23.9064 46.4983 0.49277 -0.0785752 0.86646
17.5423 23.1686 46.9303 0.490416 -0.0606868 0.869366
16.1577 23.22 47.7011 0.476293 -0.0531469 0.877679
15.1724 24.0946 48.2929 0.447412 -0.0614513 0.891669
14.3242 24.7381 48.7329 0.372929 -0.0789655 0.924493
13.7507 25.766 49.0531 0.373934 -0.0786222 0.924117
13.5788 26.7845 49.2164 0.383569 -0.0743656 0.920467
13.2021 28.2796 49.4873 0.382414 -0.0665188 0.921559
12.8574 29.4482 49.7346 0.368644 -0.088842 0.925272
12.4348 30.3523 50.011 0.312136 -0.100353 0.944628
11.6327 31.4153 50.3876 0.299333 -0.109588 0.947819
10.6026 32.471 50.7902 0.276468 -0.0926145 0.956545
9.72443 33.026 51.0631 0.2434 -0.0798599 0.966385
8.75308 33.4346 51.3415 0.225836 -0.091287 0.969787
7.55963 33.5715 51.6116 0.211034 -0.0759825 0.974521
6.38337 33.9417 51.8618 0.126813 -0.0593961 0.989684
5.31332 34.0976 51.981 0.102234 -0.0380155 0.994034
4.36762 34.5426 52.0784 0.0685901 -0.0439908 0.996674
2.94625 35.2644 52.2085 0.0550576 -0.0463073 0.997318
2.13201 35.862 52.2692 0.0399388 -0.0459847 0.998143
1.22875 36.5081 52.3333 0.018133 -0.0455207 0.998583
0.358731 37.0811 52.3524 -0.0066482 -0.0418975 0.9991
-0.656002 37.367 52.3409 -0.0674631 -0.00974609 0.997663
-1.71264 37.3875 52.2581 -0.088817 -0.0401086 0.995217
-2.87611 37.2485 52.1208 -0.13434 -0.0399586 0.990129
-3.84842 36.8325 51.9726 -0.129026 -0.0304101 0.991119
-4.94922 35.946 51.7648 -0.179807 -0.0142688 0.983598
-5.81256 35.1107 51.5812 -0.19047 -0.0260962 0.981346
-6.68868 33.7167 51.3374 -0.215377 -0.0600938 0.974672
-7.1172 32.3794 51.1581 -0.215168 -0.0524237 0.97511
-7.52745 31.1535 51.0073 -0.226564 -0.0453613 0.972939
-7.70897 29.9387 50.9013 -0.248347 -0.0569088 0.966924
-7.79424 28.8659 50.828 -0.255401 -0.0439994 0.965824
-8.25479 27.5224 50.6328 -0.267955 -0.0579495 0.961687
-8.96127 26.7973 50.3928 -0.292578 -0.0462587 0.954755
-9.97695 26.4066 50.0329 -0.314551 -0.0507599 0.947859
-11.5346 26.1611 49.5074 -0.309488 -0.0518361 0.949476
-12.5195 26.0683 49.1289 -0.375548 -0.0962717 0.92141
-13.5756 25.9502 48.649 -0.404684 -0.0868149 0.910323
-14.53 25.5245 48.1867 -0.401722 -0.0798361 0.912259
-15.5909 24.4593 47.5534 -0.48743 -0.0709639 0.870262
-16.3257 23.363 47.0467 -0.494815 -0.0631895 0.866696
-16.7817 22.4961 46.7171 -0.504521 -0.0568836 0.861511
-16.9981 21.5208 46.5321 -0.505851 -0.0492285 0.861214
-17.3227 20.4 46.2801 -0.50615 -0.0457622 0.861229
-17.4255 19.3058 46.157 -0.532567 -0.0540153 0.844633
-17.1939 17.449 46.1912 -0.526312 -0.0459942 0.848999
-17.0799 16.112 46.1774 -0.505909 -0.0511826 0.861059
-17.1488 14.7111 46.0675 -0.503171 -0.0335216 0.863537
-17.3896 13.7506 45.8928 -0.513466 -0.0314515 0.857511
-17.9839 12.3632 45.4579 -0.527201 -0.0433033 0.848635
-18.4764 11.4075 45.1086 -0.53086 -0.0381623 0.846599
-19.1528 10.2138 44.6322 -0.530167 -0.0337563 0.84722
-19.2521 9.17623 44.5321 -0.534636 -0.0283794 0.844603
-19.4364 7.24523 44.3464 -0.541137 -0.0229166 0.840585
-19.2812 6.00054 44.4169 -0.547027 -0.0215216 0.836838
-19.2347 4.69977 44.412 -0.543682 -0.020789 0.839025
-18.9569 3.61126 44.5695 -0.542835 -0.0169734 0.839668
-18.7713 1.81601 44.6687 -0.540491 -0.00181787 0.841348
-18.7096 0.800228 44.7014 -0.558747 -0.0168045 0.829116
-18.5997 -0.369046 44.7401 -0.560431 -0.0189678 0.827959
-18.3178 -1.77759 44.9204 -0.563731 -0.00233976 0.825938
-17.8693 -2.91291 45.2109 -0.526247 -0.000193028 0.850329
-17.4496 -3.83987 45.47 -0.52739 0.0019092 0.849621
-16.8802 -4.61164 45.8242 -0.516043 -0.00155861 0.856467
-16.2228 -5.37903 46.2239 -0.511981 0.00615228 0.858971
-15.4561 -6.4023 46.6865 -0.482133 0.00902136 0.875459
-15.045 -7.52276 46.9091 -0.45463 0.0126916 0.890587
-15.1101 -8.60824 46.8849 -0.472054 0.000843817 0.881567
-15.638 -9.5675 46.6044 -0.486098 0.00758627 0.873652
-16.2365 -10.4741 46.2721 -0.503876 0.0159559 0.863628
-16.9786 -11.3328 45.8547 -0.512155 0.0120438 0.85875
-17.4199 -12.3755 45.6171 -0.527988 0.0259405 0.84879
-17.7142 -13.555 45.4561 -0.531296 0.0358386 0.846428
-17.8451 -14.6284 45.4195 -0.521201 0.0270214 0.852877
-17.8002 -15.9504 45.4935 -0.52488 0.0296114 0.850413
-17.611 -17.1337 45.6546 -0.531469 0.0413349 0.845837
-16.96 -18.5089 46.0976 -0.51708 0.0369527 0.855111
-15.9092 -19.7529 46.7668 -0.493654 0.045726 0.868456
-15.2878 -20.6588 47.1507 -0.482655 0.0323625 0.875202
-14.0384 -21.1571 47.8197 -0.44706 0.0402712 0.893597
-13.1538 -21.4183 48.2748 -0.428598 0.0421652 0.902241
-12.1059 -21.4278 48.7274 -0.391531 0.0491154 0.918849
-10.5326 -20.9529 49.379 -0.397799 0.0334617 0.916861
-9.42884 -20.4775 49.7588 -0.311188 0.0366254 0.949631
-8.55411 -19.6049 50.0066 -0.282956 0.0390219 0.95792
-7.74816 -17.9678 50.1841 -0.279113 0.0319771 0.959726
-7.38037 -17.0048 50.2376 -0.259293 0.0518355 0.964393
-7.1765 -15.9009 50.2669 -0.249328 0.0206893 0.968168
-7.24456 -14.7338 50.2238 -0.250621 0.0223969 0.967791
-7.55853 -13.4793 50.1069 -0.259394 0.0260782 0.965418
-7.96032 -12.4386 49.9908 -0.284999 0.0177266 0.957951
-8.51024 -11.547 49.7877 -0.308533 0.00502094 0.9512
-9.19889 -10.7953 49.5588 -0.324731 0.0156732 0.945515
-9.93571 -10.087 49.2753 -0.343316 0.0186642 0.939028
-10.7536 -9.19395 48.9465 -0.377109 0.0346929 0.925519
-11.1469 -8.18371 48.7553 -0.376171 0.0269673 0.926076
-10.8415 -7.25022 48.8793 -0.38019 -0.00393084 0.9249
-10.3165 -5.63588 49.0835 -0.362497 0.00700712 0.931958
-9.5698 -4.85427 49.367 -0.336532 -0.0101871 0.94106
-8.8684 -4.1495 49.5815 -0.275038 -0.0139214 0.961333
-8.34855 -3.12359 49.7447 -0.274592 -0.00857472 0.96151
-8.0833 -2.07793 49.8243 -0.28252 0.000313795 0.95922
-7.94206 -0.920573 49.8716 -0.287578 -0.0154953 0.957631
-7.97412 0.0937259 49.8791 -0.287773 -0.0166331 0.957551
-7.97612 1.12887 49.8864 -0.291694 -0.00256616 0.956507
-8.41045 2.45273 49.7558 -0.315213 -0.0181884 0.948845
-8.69378 3.5328 49.685 -0.317339 -0.0187474 0.94812
-8.9381 5.33382 49.6093 -0.298955 -0.00502837 0.954208
-8.95785 6.53864 49.617 -0.302764 -0.0215074 0.95269
-9.20101 7.88101 49.5806 -0.341352 -0.0305999 0.939361
-9.11825 9.16132 49.6455 -0.330674 -0.0256575 0.943396
-9.54087 10.2124 49.5247 -0.332884 -0.0265738 0.942591
-9.66517 11.2096 49.5108 -0.3343 -0.0157769 0.942271
-9.68724 12.3044 49.5074 -0.311483 -0.0103264 0.950133
-9.42977 13.4893 49.6181 -0.312186 -0.0418719 0.949054
-8.71465 14.9156 49.9103 -0.290749 -0.0367513 0.956086
-8.30018 15.9927 50.0733 -0.29041 -0.0320317 0.956365
-7.59742 17.3619 50.3446 -0.272232 -0.0478579 0.960671
-6.99796 18.8445 50.5538 -0.233373 -0.0304918 0.971909
-6.81892 19.8767 50.6225 -0.256239 -0.0442242 0.965173
-6.63785 20.8966 50.7325 -0.235417 -0.0584196 0.970135
-6.0892 21.9434 50.9224 -0.231583 -0.053905 0.971321
-5.20711 22.6677 51.1372 -0.191537 -0.0495778 0.980232
-4.23678 23.0152 51.3268 -0.157312 -0.0463775 0.986253
-3.13759 22.941 51.4806 -0.137816 -0.0321949 0.989928
-2.93752 22.9151 51.5072 -0.10225 -0.0500865 0.992739
-7.87301 23.6571 50.5438 -0.285452 -0.0418386 0.95734
-8.81443 23.9561 50.2846 -0.28329 -0.0590855 0.95721
-10.1444 23.8482 49.8499 -0.318643 -0.0566531 0.94617
-11.3311 23.6751 49.4352 -0.349493 -0.0589639 0.934605
-12.3029 23.5493 49.0295 -0.378273 -0.0595108 0.923779
-13.217 23.2533 48.6398 -0.401867 -0.0511271 0.913752
-14.0247 22.5207 48.2108 -0.431836 -0.0542532 0.900318
-14.6878 21.4635 47.8201 -0.446736 -0.0651599 0.892202
-15.059 20.3748 47.5451 -0.455443 -0.0565913 0.888387
