11.2291 1.04912 50.0148 0.36247 -0.00109488 0.931995
10.0471 2.3315 50.4293 0.267266 -0.021198 0.96339
9.50114 3.51699 50.6056 0.260312 -0.0205586 0.9653
9.45118 4.62674 50.646 0.282876 -0.0144189 0.958694
9.64968 5.65912 50.6046 0.290967 -0.0275569 0.956242
10.0648 6.72818 50.5027 0.283284 -0.0159726 0.9589
10.937 7.9651 50.2234 0.324763 -0.000227861 0.94579
11.5972 8.78692 50.0095 0.341594 -0.0251582 0.939325
12.1831 9.63947 49.7989 0.355361 -0.0129944 0.934639
12.6965 10.6417 49.6099 0.399274 -0.0135788 0.916597
12.8939 11.8747 49.5361 0.39654 -0.00725109 0.917989
12.8348 12.9087 49.5694 0.388526 -0.0280517 0.920726
12.627 13.9764 49.711 0.377619 -0.0465052 0.924792
12.295 15.1421 49.9057 0.377579 -0.0463951 0.924814
11.9246 16.3998 50.1313 0.356395 -0.0525278 0.932384
11.5716 17.5031 50.3062 0.330523 -0.0482541 0.942551
10.9728 18.9717 50.5981 0.316103 -0.0483795 0.947368
10.423 19.8589 50.8176 0.329692 -0.0225422 0.943819
9.73244 20.6377 51.0832 0.312414 -0.0664027 0.947154
8.86424 21.3016 51.3725 0.249083 -0.0855442 0.964696
7.42486 22.085 51.7693 0.206172 -0.0661592 0.976254
6.0695 22.7181 52.0599 0.172725 -0.0451293 0.983876
4.97695 23.2355 52.25 0.129207 -0.0473499 0.990452
3.78301 23.7906 52.4041 0.0835802 -0.0372849 0.995799
2.8084 24.2287 52.5087 0.0879836 -0.0458739 0.995065
1.74652 24.589 52.5905 0.0413802 -0.0338263 0.998568
-0.162431 24.9105 52.6038 -0.031991 -0.0560982 0.997882
-1.19464 24.9942 52.5824 -0.0256702 -0.0608672 0.997816
-1.23918 24.9978 52.5815 -0.0379673 -0.0654532 0.997047
-0.948541 24.2032 52.5404 -0.0379673 -0.0654532 0.997047
0.327184 24.0562 52.5789 -0.0382755 -0.051036 0.997963
1.41379 23.897 52.5805 0.0500193 -0.0406899 0.997836
2.95126 23.3092 52.4545 0.0766803 -0.0478899 0.995833
4.01961 22.8323 52.3476 0.0810875 -0.0395388 0.995922
5.08113 22.3466 52.2014 0.131191 -0.0497704 0.990033
6.01442 21.8732 52.0265 0.148581 -0.0500123 0.987507
6.9795 21.3691 51.8096 0.196842 -0.0674106 0.978103
8.62164 20.4775 51.3609 0.249232 -0.0868776 0.964539
9.41127 19.8188 51.1385 0.273558 -0.0417219 0.960425
10.0628 18.9926 50.8883 0.302581 -0.0505434 0.951782
10.6146 17.8451 50.6601 0.316008 -0.0480519 0.947421
11.0848 16.4991 50.4294 0.328542 -0.0438146 0.943472
11.4092 15.517 50.2668 0.326282 -0.0360998 0.944488
11.7866 14.3316 50.0686 0.361008 -0.0515454 0.931137
12.0525 13.2206 49.9049 0.365189 -0.035853 0.930105
12.1732 12.1417 49.8406 0.363928 -0.0130059 0.931336
12.0584 11.1001 49.8714 0.361404 -0.0175372 0.932227
11.6147 10.2018 50.0228 0.355361 -0.0129944 0.934639
11.0676 9.31243 50.215 0.33298 -0.0352244 0.942265
10.3452 8.41142 50.4219 0.311894 -0.0254142 0.949326
9.72811 7.59885 50.6131 0.280861 -0.013535 0.95965
8.98311 6.2236 50.8095 0.266126 -0.0159926 0.963767
8.60449 4.67563 50.8743 0.259539 -0.0231007 0.965456
8.69123 3.4935 50.824 0.260426 -0.017787 0.96533
9.01072 2.51795 50.72 0.262333 -0.0200851 0.964763
9.68806 1.4814 50.525 0.273733 0.0236337 0.961515
10.7092 0.458581 50.2012 0.317626 -0.0174455 0.948055
11.9958 -0.371575 49.7036 0.376094 -0.00592487 0.926545
12.9496 -0.630782 49.3138 0.390158 -0.00385558 0.920638
14.1797 -0.471977 48.7714 0.406188 -0.0112469 0.913718
15.2082 -0.149062 48.2688 0.454489 -0.0115758 0.890677
16.0694 0.518487 47.8243 0.469626 -0.00452371 0.882811
17.0338 1.67729 47.3016 0.480412 -0.000279944 0.877043
17.5436 2.82749 47.0392 0.487499 -0.0151962 0.872991
17.6962 3.85051 46.972 0.490346 -0.020969 0.871251
17.7337 4.9358 46.978 0.498348 -0.0138876 0.866866
17.4344 6.59892 47.1692 0.487974 -0.0185857 0.872543
17.1637 7.70371 47.3563 0.481519 -0.0302239 0.875914
17.0298 8.7712 47.4769 0.488511 -0.0323242 0.871947
17.1013 9.95843 47.4759 0.491612 -0.0276624 0.870374
17.5408 11.2566 47.2739 0.486305 -0.0309213 0.873242
18.0569 12.1482 47.018 0.485948 -0.0286383 0.873516
18.6784 13.0726 46.693 0.492132 -0.0232751 0.870209
19.2026 13.9771 46.4206 0.492091 -0.0315801 0.869931
19.7182 15.6667 46.1484 0.534214 -0.0210043 0.845087
19.8568 16.9423 46.1215 0.533089 -0.044589 0.84486
19.901 17.9628 46.154 0.535381 -0.0496038 0.843153
20.0024 19.0126 46.1516 0.530733 -0.0425049 0.846421
20.2261 20.1586 46.07 0.519133 -0.0471003 0.853395
20.6439 21.1982 45.8645 0.548387 -0.0468334 0.834912
21.9029 21.9208 45.073 0.56444 -0.0481515 0.823939
23.3064 21.9784 44.092 0.586712 -0.0635919 0.807044
24.1335 22.0526 43.4721 0.599048 -0.0541841 0.798878
25.4246 22.3892 42.5201 0.602718 -0.0577542 0.795846
26.1602 22.8287 41.9986 0.608967 -0.0607509 0.790815
26.785 23.4895 41.5578 0.617081 -0.0582289 0.784741
27.3732 24.3074 41.156 0.62727 -0.055134 0.776744
27.9333 25.0677 40.7423 0.637047 -0.0502898 0.769183
28.8424 26.1583 40.0671 0.628216 -0.0539655 0.776165
29.5564 26.7151 39.5078 0.644082 -0.0618942 0.762439
30.7297 27.2217 38.5496 0.65303 -0.0637318 0.754645
31.6374 27.3169 37.7734 0.658313 -0.0634126 0.750023
32.7115 27.2312 36.8042 0.666637 -0.0628439 0.742729
33.492 27.3214 36.1127 0.665262 -0.0629961 0.743948
34.4633 27.6997 35.277 0.663463 -0.0659542 0.745289
35.138 28.2355 34.7211 0.667094 -0.0693936 0.741734
36.0048 29.5056 34.0709 0.662622 -0.0779705 0.744884
36.5265 30.366 33.6865 0.682412 -0.0786786 0.726703
37.1522 31.1974 33.1824 0.685861 -0.0777363 0.723568
37.8995 31.9601 32.5664 0.680599 -0.0860731 0.727583
38.6602 32.346 31.9017 0.680021 -0.0880247 0.72789
39.3935 32.5229 31.2275 0.689868 -0.0778453 0.719722
40.1095 32.709 30.5548 0.693582 -0.0781683 0.716124
41.348 32.7333 29.3266 0.708664 -0.0471553 0.703969
42.1727 32.7516 28.5122 0.673008 -0.0211065 0.739134
43.5228 33.0205 27.2532 0.678788 -0.00927697 0.734251
44.3371 33.3209 26.518 0.669081 -0.0262482 0.742661
45.2255 33.6679 25.7352 0.65614 -0.0118157 0.754399
46.002 34.0584 25.0792 0.636826 0.000221719 0.771007
46.9695 34.8653 24.2852 0.634113 -0.00348002 0.773233
47.6305 35.5324 23.7455 0.636188 -0.000187999 0.771532
48.4095 36.4361 23.1006 0.624916 0.00508023 0.780521
49.0537 37.2318 22.5649 0.619651 0.0243286 0.784475
49.7004 38.2422 22.0448 0.606631 0.00928796 0.794893
49.9043 39.7915 21.8535 0.602906 0.0192464 0.79758
50.1447 40.7515 21.65 0.600795 0.0160007 0.799238
50.4779 41.8366 21.3999 0.602172 -0.00678516 0.798329
50.3938 43.418 21.4936 0.612305 -0.0242375 0.790246
50.1291 44.6641 21.7406 0.611103 -0.0105541 0.791273
49.8111 45.8576 21.9712 0.609988 0.0102242 0.792345
49.5934 47.0317 22.1242 0.625757 -0.000801051 0.779894
49.2522 48.6014 22.41 0.638241 -0.00261558 0.769831
48.9549 49.5605 22.6423 0.636908 0.0133002 0.770825
48.325 50.3775 23.1715 0.651644 0.0045077 0.758511
47.5736 50.6739 23.8166 0.65661 2.81979e-06 0.754227
46.7493 50.8145 24.5381 0.65915 -0.00130373 0.752009
45.7995 50.8952 25.3816 0.680346 -0.00563702 0.732684
44.9375 51.0297 26.207 0.690604 -0.00112292 0.723227
44.1538 51.0999 26.9777 0.70343 -0.00634655 0.710736
43.1186 51.1942 28.0179 0.716207 -0.00601614 0.697862
42.2497 51.2042 28.9124 0.717071 -0.0053319 0.696978
41.4232 50.5673 29.8042 0.734656 0.0120053 0.678331
41.5402 49.6193 29.6788 0.738515 0.000968965 0.674236
41.5839 48.6124 29.6129 0.732952 -0.00977413 0.680177
41.597 47.5006 29.5909 0.728817 -0.00333216 0.684694
41.5399 46.3298 29.6535 0.72802 0.00400534 0.685541
41.533 45.1116 29.6751 0.732503 -0.00069053 0.680676
41.527 44.0441 29.6614 0.735651 -0.0140062 0.677214
41.5204 42.9716 29.644 0.73783 -0.0197619 0.674678
41.5229 41.8408 29.6409 0.751562 0.00053243 0.65966
41.5421 40.5643 29.6186 0.75314 -0.00710329 0.657808
41.4555 39.0473 29.6922 0.758535 -0.0074889 0.651553
41.3387 37.986 29.8007 0.767878 -0.035177 0.639629
40.5002 36.7549 30.6339 0.726579 -0.0912734 0.680993
39.8017 36.5069 31.3269 0.707364 -0.0952445 0.700359
38.9544 36.3662 32.1517 0.700037 -0.0980936 0.707329
38.0826 36.3533 32.9843 0.6839 -0.0982173 0.722932
37.2932 36.3573 33.7255 0.667142 -0.0977807 0.738272
36.1423 36.3951 34.7646 0.660297 -0.0749322 0.747197
35.1857 36.4623 35.6038 0.654976 -0.0698442 0.752415
34.0842 36.4606 36.5244 0.626995 -0.0721329 0.775676
33.2584 36.4919 37.1961 0.623668 -0.067254 0.778759
32.4613 36.5355 37.8508 0.635883 -0.0483456 0.77027
31.6831 36.6508 38.4971 0.628291 -0.0473191 0.776506
30.9904 37.0895 39.0752 0.625839 -0.0419285 0.778819
30.1038 37.4565 39.8279 0.632245 -0.0427167 0.773559
29.6667 36.4731 40.1148 0.626195 -0.0598412 0.777366
29.1695 35.5019 40.4469 0.631762 -0.0515444 0.773428
28.5834 34.7041 40.8815 0.63822 -0.0465444 0.76844
27.846 34.1035 41.4522 0.632976 -0.0447645 0.772876
27.0044 33.9253 42.1282 0.627477 -0.041203 0.777543
25.9978 34.0275 42.9449 0.626874 -0.0421375 0.77798
24.502 34.4537 44.1349 0.6138 -0.0423001 0.788327
23.5525 34.5098 44.8725 0.609603 -0.0629001 0.790207
22.1247 33.8014 45.9068 0.597107 -0.0707952 0.798978
21.1973 32.6497 46.4786 0.582259 -0.0777823 0.809175
20.4944 31.4149 46.8076 0.558416 -0.102427 0.823213
20.131 30.3387 46.9188 0.555276 -0.0896035 0.826695
20.0097 29.2763 46.9029 0.552874 -0.0754925 0.829838
19.9788 28.1602 46.8186 0.535357 -0.0853684 0.84028
20.014 26.9717 46.6906 0.531798 -0.0741186 0.843622
20.1095 25.77 46.5259 0.529713 -0.0766246 0.8447
20.1399 24.6332 46.4081 0.523791 -0.0735107 0.848669
19.586 23.0831 46.6236 0.527685 -0.0650739 0.846944
18.6259 22.5353 47.1552 0.487605 -0.0625967 0.870662
17.3856 22.4634 47.8566 0.492975 -0.0458868 0.868823
16.4633 22.6073 48.3963 0.500783 -0.0487917 0.864196
15.2954 23.1536 49.0495 0.437279 -0.0628542 0.897109
14.2776 24.0535 49.5948 0.403101 -0.0658743 0.912314
13.6514 24.8657 49.912 0.371904 -0.0733703 0.925365
13.0253 26.4416 50.2711 0.355392 -0.0733856 0.931737
12.7148 28.2048 50.5553 0.353862 -0.0915114 0.930805
12.4474 29.1624 50.7542 0.353451 -0.0944376 0.930674
12.0436 30.1035 50.9748 0.32858 -0.0737158 0.941595
11.5284 31.0013 51.2526 0.307306 -0.09657 0.946488
10.3144 32.2158 51.731 0.289088 -0.0901562 0.953031
8.76226 33.0025 52.1815 0.244717 -0.0674821 0.967243
7.50174 33.2764 52.4954 0.210415 -0.073032 0.974647
6.25003 33.4544 52.7268 0.15488 -0.0659965 0.985702
4.86646 33.7508 52.9046 0.0715654 -0.0521114 0.996068
3.86454 34.2246 53.0029 0.0655703 -0.0506832 0.996551
2.89528 34.8276 53.093 0.060652 -0.0504401 0.996884
1.953 35.5459 53.1881 0.02982 -0.0544948 0.997557
1.1708 36.2108 53.2218 -0.00708109 -0.049413 0.998735
0.130348 36.8468 53.2389 -0.0356309 -0.0463691 0.997974
-0.917436 37.119 53.1899 -0.0560535 -0.0571936 0.996788
-2.50233 37.0512 53.054 -0.104589 -0.0564579 0.992912
-3.52848 36.6572 52.9344 -0.141566 -0.0367686 0.988221
-4.47612 35.8755 52.7172 -0.188537 -0.0279362 0.981597
-5.23519 35.1165 52.5628 -0.182533 -0.0207875 0.982977
-5.96202 34.14 52.3948 -0.211291 -0.0463777 0.976321
-6.48941 32.7538 52.2103 -0.213476 -0.0513476 0.975596
-6.80173 31.0262 52.0468 -0.214082 -0.0528973 0.975379
-7.02417 29.5737 51.9068 -0.215418 -0.0613082 0.974595
-7.2605 28.3524 51.7975 -0.212219 -0.0494355 0.975926
-7.77421 27.0887 51.6249 -0.257876 -0.0483864 0.964961
-8.70835 26.2793 51.3178 -0.304781 -0.0608757 0.950371
-9.92504 25.8769 50.8862 -0.318536 -0.0552481 0.946299
-11.0491 25.7949 50.5055 -0.316506 -0.053807 0.947063
-12.1264 25.7452 50.1394 -0.360183 -0.0683649 0.929179
-13.6619 25.3927 49.431 -0.397943 -0.0695852 0.914648
-14.5928 24.8825 48.9658 -0.416665 -0.0736357 0.906073
-15.3082 24.1721 48.5792 -0.427603 -0.0562587 0.902212
-16.1569 22.8897 48.0133 -0.499878 -0.054141 0.864402
-16.6085 21.9153 47.6862 -0.502826 -0.0570056 0.862506
-16.8901 20.8477 47.4644 -0.510687 -0.0464799 0.858472
-16.9676 19.7353 47.3512 -0.500006 -0.0375105 0.864987
-16.8891 18.6343 47.3464 -0.52212 -0.046685 0.85158
-16.757 17.5726 47.3642 -0.523589 -0.0511564 0.850434
-16.552 16.2588 47.4209 -0.511669 -0.0413195 0.858098
-16.5303 15.2091 47.3725 -0.505091 -0.0487281 0.861688
-16.6988 14.1972 47.2298 -0.503406 -0.0379361 0.863214
-17.2618 12.7642 46.8365 -0.517921 -0.0374451 0.854591
-17.8524 11.5805 46.4224 -0.524369 -0.0416054 0.85046
-18.3472 10.6755 46.0666 -0.528527 -0.040268 0.847938
-18.7218 9.66746 45.7904 -0.532251 -0.0359202 0.845823
-18.9219 8.69694 45.6248 -0.534294 -0.0219112 0.844923
-18.9971 7.67203 45.5618 -0.547516 -0.0220685 0.836504
-18.8474 6.32985 45.6273 -0.548083 -0.0185159 0.836219
-18.7086 5.28698 45.6917 -0.541968 -0.022615 0.840095
-18.3444 3.58434 45.879 -0.541708 -0.015193 0.840389
-18.2691 2.02254 45.9068 -0.534137 -0.0117793 0.845316
-18.2146 0.861094 45.9371 -0.538411 0.000959802 0.842681
-18.0168 -0.919505 46.0494 -0.541933 -0.0175267 0.840239
-17.6961 -2.53125 46.2407 -0.529995 -0.00555854 0.847761
-17.2448 -3.40881 46.5082 -0.516613 -0.00203076 0.856217
-16.364 -4.64367 47.0366 -0.509924 -0.00181183 0.860217
-15.6828 -5.43971 47.4279 -0.498583 -0.00703429 0.86681
-14.7715 -6.51313 47.9313 -0.456864 -0.00324777 0.889519
-14.2662 -7.72106 48.1854 -0.451393 -0.0031792 0.892318
-14.3488 -8.79597 48.1689 -0.466199 0.0234432 0.884369
-15.1824 -10.485 47.7646 -0.467103 0.0139219 0.884093
-15.9578 -11.3874 47.3439 -0.484541 0.0162304 0.87455
-16.6421 -12.2837 46.977 -0.505732 0.0112315 0.862382
-17.1243 -13.3405 46.6969 -0.520699 0.0133382 0.853634
-17.3766 -14.9203 46.6198 -0.528003 0.0446677 0.848066
-17.3181 -16.3184 46.7073 -0.508262 0.0281322 0.860743
-16.7539 -18.0919 47.1035 -0.509152 0.0328479 0.86005
-16.2272 -18.9199 47.4447 -0.500588 0.0300671 0.86513
-15.5268 -19.7451 47.878 -0.48032 0.0341007 0.876254
-14.6381 -20.4514 48.3675 -0.464214 0.0315048 0.885161
-13.6341 -20.827 48.8774 -0.442584 0.0529757 0.894986
-12.6895 -20.9306 49.3596 -0.424054 0.062426 0.903073
-11.7518 -20.7638 49.7556 -0.389936 0.0500682 0.919471
-10.8832 -20.3668 50.1006 -0.364212 0.0418033 0.930358
-10.0756 -19.8275 50.3901 -0.318064 0.0316812 0.94746
-9.31999 -19.1468 50.6283 -0.289534 0.0354077 0.956455
-8.43789 -17.7617 50.8218 -0.293006 0.0363578 0.955273
-8.24888 -16.7691 50.8551 -0.251568 0.0419016 0.966931
-8.23597 -15.0113 50.8064 -0.267301 0.021809 0.963269
-8.44562 -13.9891 50.7123 -0.279853 0.0164286 0.959788
-8.962 -12.8369 50.5583 -0.303777 0.0233623 0.951936
-9.52814 -12.0422 50.3283 -0.333712 0.0156867 0.94254
-10.5413 -10.9826 49.936 -0.349112 0.0325965 0.936514
-11.6236 -9.99688 49.482 -0.403056 0.0247673 0.914743
-12.1983 -9.02651 49.2096 -0.412014 0.00604826 0.911157
-12.3818 -7.67101 49.1152 -0.406994 0.00383486 0.91342
-11.9222 -6.52384 49.3092 -0.399047 0.0118942 0.916853
-11.2654 -5.63168 49.5779 -0.38866 0.00182732 0.921199
-10.4738 -4.62593 49.8881 -0.340479 0.000422921 0.940252
-9.72214 -3.5577 50.1547 -0.332067 0.00917169 0.94321
-9.07414 -2.02817 50.3899 -0.308756 -0.0130663 0.95094
-8.91209 -0.85255 50.446 -0.29883 -0.00548846 0.95429
-8.9853 0.261855 50.4329 -0.312576 0.00216072 0.949859
-9.24436 1.45449 50.3505 -0.31421 0.00631786 0.949298
-9.58778 2.73573 50.2237 -0.309971 -0.0101014 0.950632
-9.93208 4.59948 50.15 -0.305286 -0.0140079 0.952145
-10.0798 5.76519 50.1168 -0.354142 -0.0134817 0.935083
-10.1342 7.03899 50.1146 -0.346797 -0.0146796 0.93782
-10.0935 8.18054 50.1397 -0.348102 -0.00633078 0.937434
-10.1761 9.19733 50.149 -0.336365 -0.0399178 0.940885
-10.4192 10.2522 50.0973 -0.382861 -0.0197149 0.923357
-10.6555 11.5255 50.0137 -0.368124 -0.00746639 0.929746
-10.7703 12.8421 50.0115 -0.35416 -0.0259361 0.934763
-10.5097 13.9409 50.1456 -0.332592 -0.039732 0.94223
-10.1369 14.8697 50.3136 -0.33035 -0.0361941 0.943163
-9.64669 15.8502 50.5232 -0.318747 -0.038833 0.946964
-8.95375 16.985 50.7952 -0.303027 -0.035653 0.952288
-8.33628 17.8465 51.0161 -0.29621 -0.0470425 0.953851
-8.02308 18.7935 51.1729 -0.29254 -0.061092 0.9543
-7.80343 20.3567 51.2969 -0.243549 -0.049306 0.968634
-7.58926 21.4036 51.3928 -0.274502 -0.0427668 0.960452
-7.20677 22.6855 51.5483 -0.241387 -0.0384035 0.969669
-5.94612 23.9726 51.8915 -0.212047 -0.0336203 0.976681
-5.00239 24.3641 52.1003 -0.185704 -0.0380876 0.98177
-3.98128 24.398 52.2808 -0.171693 -0.0332464 0.984589
-2.95253 24.2981 52.4483 -0.0925213 -0.0498357 0.993206
-1.93768 24.2188 52.4923 -0.0444723 -0.034168 0.998426
-1.80263 24.2174 52.4983 -0.047396 -0.052051 0.997355
-1.63892 23.3785 52.477 -0.0424287 -0.032424 0.998571
-0.438735 23.3719 52.5244 -0.0336112 -0.0337863 0.998863
0.732807 23.0757 52.5539 -0.0199779 -0.0441549 0.998682
1.72732 22.8146 52.517 0.0648177 -0.0340265 0.997316
3.15947 22.2972 52.3952 0.0760202 -0.0411043 0.996259
4.17176 21.8282 52.2926 0.108774 -0.0586051 0.99203
5.13663 21.4009 52.1369 0.141192 -0.0378402 0.989253
6.55701 20.4408 51.8435 0.204531 -0.052249 0.977448
7.51545 20.1673 51.6269 0.220308 -0.0317567 0.974715
8.36724 19.6801 51.398 0.244775 -0.0306171 0.969096
9.12396 18.9475 51.1843 0.273622 -0.0394366 0.960507
9.71017 18.0621 50.9573 0.296892 -0.0487479 0.953666
10.2734 16.4697 50.7056 0.308987 -0.0447752 0.949889
10.5407 15.5033 50.5668 0.3224 -0.027173 0.946211
10.918 14.4255 50.4105 0.341747 -0.0368312 0.938724
11.1942 13.3734 50.2502 0.368017 -0.0229253 0.929535
11.3966 12.3186 50.1465 0.36584 -0.0154464 0.930542
11.1698 11.2967 50.2179 0.358976 -0.022822 0.933068
10.6614 10.1505 50.3855 0.336309 -0.026065 0.941087
10.0818 9.32989 50.5513 0.26016 -0.024394 0.965252
9.32002 8.58034 50.7426 0.267463 -0.0130087 0.963459
8.63933 7.68739 50.9192 0.255682 -0.00891335 0.966711
8.22415 6.69484 51.0223 0.252553 -0.0136524 0.96747
7.90607 5.30028 51.0775 0.255595 -0.02141 0.966535
7.79339 4.07248 51.0759 0.243451 -0.0226631 0.969635
7.97807 2.76083 51.0018 0.254452 -0.0168001 0.966933
8.31515 1.80552 50.8994 0.256289 0.00951834 0.966526
9.44239 0.458808 50.6197 0.291432 0.00177075 0.956154
10.2554 -0.233382 50.3472 0.324974 0.0334275 0.94508
11.452 -0.985635 49.9219 0.365283 -0.00382081 0.93088
12.4733 -1.46992 49.5115 0.372765 0.007892 0.927877
13.4454 -1.59608 49.0985 0.409569 0.021559 0.911945
14.454 -1.3472 48.6372 0.431391 -0.0128397 0.901744
15.6654 -0.82957 48.0252 0.45404 -0.00423178 0.890936
16.4997 -0.134251 47.5873 0.476254 -0.00531869 0.879291
17.2062 0.443041 47.2067 0.483242 0.00317316 0.87542
17.7739 1.42924 46.896 0.497076 -0.00565278 0.867461
18.4108 2.6947 46.5348 0.520572 -0.023168 0.853503
18.4419 3.98248 46.5511 0.530548 -0.0133029 0.847409
18.5976 5.10534 46.4704 0.522558 -0.00948497 0.852551
18.405 6.08824 46.5996 0.518402 -0.0229818 0.854712
17.9945 7.21323 46.8805 0.507695 -0.0258383 0.86115
17.7636 8.21293 47.0443 0.483905 -0.0344291 0.874429
17.6979 9.29149 47.1161 0.498753 -0.0263798 0.866342
18.0818 10.6793 46.9454 0.494831 -0.0362366 0.868232
19.0568 12.2749 46.4254 0.518863 -0.0346141 0.854099
19.6166 13.0948 46.1239 0.557469 -0.0301816 0.829648
20.0714 14.1004 45.8609 0.556378 -0.0470246 0.829597
20.3987 15.2808 45.7073 0.546427 -0.0336058 0.836623
20.6435 16.3563 45.5918 0.559126 -0.0358315 0.828308
20.6892 17.5205 45.6201 0.551262 -0.0516793 0.832727
20.7758 18.9905 45.6507 0.550764 -0.0492879 0.833204
21.0757 20.3696 45.5333 0.550158 -0.0489293 0.833625
21.8405 21.0537 45.064 0.562128 -0.0502902 0.825434
22.7159 21.1525 44.4533 0.577536 -0.0476503 0.814973
23.8662 21.2579 43.6188 0.598482 -0.056082 0.799168
24.8962 21.0917 42.8345 0.60173 -0.0541288 0.796857
26.0552 21.8542 42.0047 0.606206 -0.0557203 0.793346
26.9568 22.4295 41.3462 0.612833 -0.0532882 0.788413
27.5347 23.4405 40.9631 0.617939 -0.0586466 0.784035
28.1896 24.2865 40.478 0.643056 -0.0576274 0.763648
28.7976 24.99 40.0175 0.642202 -0.0544326 0.7646
29.3515 25.824 39.6135 0.645405 -0.0602137 0.76146
30.2401 26.2797 38.8945 0.650591 -0.0618474 0.756894
30.9842 26.5212 38.2686 0.658389 -0.0734025 0.749089
31.8608 26.5298 37.4988 0.662686 -0.072958 0.745335
32.8369 26.3146 36.6095 0.661022 -0.06957 0.747121
33.8259 26.5649 35.7532 0.663655 -0.0589332 0.745714
34.9672 27.1664 34.7769 0.672236 -0.0617028 0.737757
35.7231 27.8353 34.1558 0.667785 -0.0709886 0.740961
36.3631 28.8759 33.6705 0.674891 -0.0682845 0.734583
37.0047 29.8249 33.1789 0.682819 -0.0783174 0.72636
37.7664 30.8671 32.5658 0.685752 -0.0749215 0.723969
38.484 31.443 31.9575 0.680384 -0.0858776 0.727805
39.6229 31.6543 30.9091 0.692028 -0.0838464 0.716974
40.3465 31.8181 30.2258 0.694069 -0.0806817 0.715373
41.2298 31.816 29.3851 0.696744 -0.0617782 0.714318
41.941 31.7941 28.6778 0.662208 -0.0298851 0.748724
43.2146 31.9922 27.5254 0.678746 -0.00802782 0.734296
44.0683 32.4031 26.7486 0.67483 -0.0068703 0.737941
44.9469 32.5899 25.9671 0.654388 0.00961441 0.756047
45.6815 32.8829 25.3456 0.640682 0.001034 0.767785
46.4424 33.3787 24.7156 0.636826 0.000221719 0.771007
47.291 33.9381 24.0199 0.63378 0.000121325 0.773514
47.9859 34.5754 23.4541 0.617148 0.00704902 0.786801
48.6263 35.3437 22.9428 0.613404 0.00661561 0.789742
49.4863 36.399 22.2464 0.609528 0.00633078 0.792355
50.1672 37.2644 21.7129 0.58116 0.0266812 0.813351
50.4128 38.3161 21.5052 0.599455 0.0190367 0.800169
50.636 40.0561 21.2949 0.602142 0.0188994 0.798165
51.209 41.0882 20.8652 0.572771 0.00423599 0.819703
51.1028 42.9198 20.9326 0.58994 -0.000308547 0.807146
50.8698 44.5369 21.165 0.610663 -0.0290076 0.791359
50.6771 45.5875 21.3077 0.611109 0.00917215 0.791493
50.3144 46.6314 21.5738 0.609988 0.011302 0.79233
50.204 47.6922 21.6443 0.615944 0.00265398 0.787785
49.9007 48.8405 21.8783 0.618843 0.00842302 0.785435
49.6616 49.8188 22.0579 0.627245 0.0089683 0.778769
49.3049 50.7339 22.3388 0.632633 -0.0016618 0.774418
48.1875 51.364 23.2861 0.651557 0.00245638 0.758595
47.3183 51.6553 24.0391 0.657487 -0.000467488 0.753459
46.4432 51.7598 24.816 0.669196 -0.0122454 0.742985
45.4996 51.8241 25.667 0.682394 -0.00409988 0.730705
44.2676 51.8817 26.8721 0.702772 -0.00434465 0.711396
42.8356 52.02 28.3159 0.7168 -0.00487 0.69726
41.8313 52.2349 29.3581 0.728941 -0.0019207 0.684554
40.7983 51.9988 30.4432 0.717837 0.0198124 0.695921
39.7876 51.9185 31.4493 0.700704 0.0180923 0.713222
39.1039 52.2022 32.1136 0.692095 0.00701491 0.721687
38.3826 52.5366 32.7886 0.6844 0.00426317 0.729094
37.3002 52.1458 33.8081 0.685132 0.00606937 0.728393
36.3708 52.3022 34.6454 0.662632 0.00369398 0.748833
35.2988 51.9817 35.5767 0.647985 -0.00606987 0.761522
34.4993 51.4656 36.2347 0.641113 -0.00402043 0.767337
34.9948 50.539 35.8303 0.644313 0.0059723 0.764726
35.9039 50.4143 35.0569 0.649129 0.00607099 0.760648
36.7825 50.389 34.3068 0.666507 0.0104453 0.745225
38.0436 50.4179 33.1357 0.684358 0.0135233 0.72902
38.7274 50.8686 32.4836 0.685195 0.0123071 0.728255
39.6583 50.6356 31.6107 0.692668 0.0184508 0.720934
40.4341 50.4378 30.8589 0.703557 0.0286201 0.710009
41.0287 49.0926 30.2266 0.735063 -0.0150353 0.677831
40.9926 48.0584 30.2416 0.732543 -0.0107347 0.680613
40.9286 46.9835 30.3035 0.731152 0.000324248 0.682209
40.9636 45.7739 30.2771 0.731387 0.00797474 0.681915
41.0235 44.6374 30.2252 0.730735 0.00736501 0.682622
41.0082 43.538 30.2207 0.746404 -0.00419099 0.66537
41.0203 42.4152 30.2148 0.751862 0.00473591 0.659304
41.0299 41.348 30.2066 0.754055 0.00257312 0.656805
40.9883 40.302 30.2514 0.75853 -0.00259066 0.651633
40.8977 38.7582 30.3472 0.762162 -0.00239809 0.647382
40.7121 37.7648 30.5453 0.748449 -0.0641071 0.658677
39.6756 37.4876 31.581 0.706939 -0.0889702 0.701635
38.9606 37.1432 32.2498 0.694355 -0.0927639 0.713591
37.9077 37.2361 33.2617 0.679369 -0.0887533 0.728405
36.4919 37.2743 34.5438 0.659847 -0.0746344 0.747624
35.6945 37.3532 35.2434 0.653962 -0.0697827 0.753302
34.5908 37.3704 36.1931 0.640087 -0.0680314 0.765281
33.7235 37.3229 36.8959 0.622928 -0.0686139 0.779237
32.8246 37.3528 37.6095 0.619104 -0.0647186 0.782637
32.0139 37.4977 38.2787 0.618457 -0.0394762 0.784496
31.1082 38.1274 39.0168 0.646909 -0.00956039 0.762216
30.5544 39.2178 39.4768 0.651341 0.0109407 0.758706
30.142 39.5265 39.8245 0.646696 0.0152233 0.762596
29.7789 38.5249 40.1502 0.648136 0.0117393 0.761428
29.4007 37.4893 40.3963 0.626474 -0.0446459 0.778163
28.8936 36.4311 40.7348 0.628604 -0.0555141 0.775729
28.417 35.5782 41.0722 0.628916 -0.0459789 0.776101
27.3404 34.7153 41.8967 0.630725 -0.0401894 0.774965
26.5515 34.881 42.5434 0.627984 -0.0398288 0.777206
25.6366 35.0908 43.2842 0.61596 -0.0417496 0.786671
24.8385 35.1429 43.9107 0.616196 -0.0455636 0.786265
24.0878 35.3818 44.5168 0.614747 -0.0487876 0.787213
22.9739 35.1376 45.368 0.610913 -0.056169 0.78968
22.0828 34.7574 46.0141 0.600971 -0.062551 0.796819
20.9776 33.9385 46.7524 0.572726 -0.0756939 0.816244
20.188 32.6033 47.1583 0.558053 -0.0896346 0.824949
19.6589 31.1075 47.334 0.555892 -0.103591 0.824774
19.2561 30.158 47.4839 0.552093 -0.0902888 0.828738
19.2265 29.0419 47.3927 0.534342 -0.0916323 0.840287
19.249 27.4245 47.2141 0.534434 -0.0799482 0.841421
19.3096 26.3252 47.0778 0.528965 -0.0769115 0.845145
19.4478 25.0879 46.8747 0.525973 -0.0765322 0.84704
19.2173 24.0906 46.9307 0.52759 -0.0647906 0.847025
18.1562 23.4352 47.4914 0.482401 -0.0808468 0.872207
17.2431 23.3136 47.9961 0.492464 -0.0643696 0.867942
15.962 23.6188 48.7454 0.495652 -0.064787 0.865959
15.2358 24.2473 49.1514 0.430191 -0.0635768 0.900495
14.3627 25.3089 49.6398 0.428272 -0.0619278 0.901525
13.8715 26.2302 49.9291 0.418496 -0.0670694 0.905683
13.6208 27.3098 50.1267 0.384146 -0.0778691 0.919334
13.3753 29.0106 50.3713 0.421884 -0.0707236 0.903886
13.0797 30.0186 50.5859 0.414239 -0.107166 0.902993
12.4559 31.0066 50.9343 0.323435 -0.10719 0.94016
12.1126 31.9395 51.1588 0.307199 -0.0967414 0.946499
10.9139 32.7453 51.6023 0.288993 -0.0959495 0.952511
9.88984 33.6837 51.9488 0.235491 -0.0740375 0.969052
8.43023 33.9278 52.3181 0.228716 -0.059162 0.971693
7.36331 34.3117 52.5909 0.197918 -0.0494872 0.978477
6.17149 34.2391 52.7862 0.152948 -0.0588327 0.986481
4.93739 34.5201 52.942 0.0747215 -0.0527843 0.995802
4.03899 35.1512 53.0373 0.0697152 -0.0500963 0.996308
2.74136 35.9157 53.1592 0.0616606 -0.0529645 0.996691
1.97798 36.605 53.2398 0.0540252 -0.0582003 0.996794
1.20981 37.2783 53.27 -0.011474 -0.0460404 0.998874
0.290677 37.7639 53.2818 -0.0104986 -0.0475143 0.998814
-0.7036 37.9259 53.2478 -0.0550965 -0.0577688 0.996808
-2.28408 37.9594 53.1284 -0.104786 -0.0563151 0.992899
-3.27334 37.7417 53.0083 -0.134269 -0.0193727 0.990544
-4.2326 37.1616 52.8158 -0.181208 -0.0360714 0.982739
-5.14978 36.3794 52.6024 -0.189065 -0.0292573 0.981438
-5.99415 35.715 52.4284 -0.196909 -0.015868 0.98029
-6.65512 34.5664 52.2578 -0.229752 -0.0393662 0.972452
-7.21897 33.7308 52.092 -0.229268 -0.0383193 0.972609
-7.33567 32.6924 52.0196 -0.233216 -0.0594447 0.970442
-7.58179 31.4431 51.875 -0.249678 -0.0622449 0.966326
-7.79123 30.4517 51.7831 -0.239527 -0.0333918 0.970314
-7.9605 28.7718 51.6662 -0.24475 -0.0519435 0.967476
-8.4102 27.614 51.4719 -0.279937 -0.0440702 0.95899
-9.37783 26.8698 51.1296 -0.31759 -0.060342 0.946305
-10.512 26.6064 50.7313 -0.314217 -0.062104 0.947304
-11.5523 26.5624 50.3809 -0.317977 -0.0546729 0.946519
-12.997 26.4452 49.8204 -0.401693 -0.0843577 0.911881
-14.0176 26.1954 49.3464 -0.411549 -0.0842705 0.907435
-15.4272 25.3185 48.6174 -0.454501 -0.0764048 0.886417
-16.0272 24.524 48.1992 -0.497109 -0.0704367 0.864796
-16.8064 23.3892 47.6698 -0.500286 -0.0672929 0.863217
-17.2527 22.4584 47.345 -0.507474 -0.0565655 0.859807
-17.6067 21.3809 47.0616 -0.520664 -0.0568871 0.851825
-17.6969 20.385 46.9488 -0.522563 -0.0495653 0.851158
-17.6795 19.3747 46.9002 -0.523342 -0.0452378 0.850906
-17.5162 18.1904 46.9324 -0.525564 -0.0507487 0.849239
-17.462 17.0461 46.8973 -0.522455 -0.0414392 0.851596
-17.2522 15.466 46.9647 -0.512064 -0.0416264 0.857857
-17.3634 14.4597 46.8522 -0.520816 -0.0405948 0.852703
-17.9252 12.9087 46.4359 -0.521743 -0.0387514 0.852221
-18.596 12.1081 45.988 -0.525868 -0.0403982 0.849597
-19.1808 10.6615 45.5439 -0.546511 -0.0427364 0.836344
-19.544 9.74324 45.2663 -0.554339 -0.027711 0.831829
-19.6875 8.69293 45.1365 -0.555921 -0.0295602 0.830702
-19.6892 7.62592 45.1076 -0.562956 -0.0154287 0.826338
-19.51 6.20202 45.1901 -0.549117 -0.0180363 0.83555
-19.5185 5.13497 45.1475 -0.562914 -0.0236774 0.826127
-19 3.542 45.4557 -0.541205 -0.0233677 0.840566
-18.8902 1.84171 45.5121 -0.538504 -0.00910606 0.842552
-19.0012 0.795877 45.4214 -0.56651 -0.0177989 0.823857
-18.691 -0.591374 45.6096 -0.566058 -0.00323492 0.824356
-18.7328 -1.88297 45.5618 -0.547497 -0.00870872 0.836665
-18.0702 -3.47234 46.001 -0.535424 -0.00224911 0.844486
-17.507 -4.32356 46.3463 -0.525283 -0.00176199 0.850926
-16.5621 -5.57686 46.9164 -0.512063 0.0107226 0.858777
-15.702 -6.49889 47.4336 -0.495667 0.0232562 0.868192
-15.1088 -7.43311 47.7504 -0.461334 -0.00539732 0.88721
-15.0712 -8.51257 47.7827 -0.459719 0.0172138 0.887897
-15.4677 -9.55911 47.5988 -0.4668 0.01867 0.884155
-16.0045 -10.3527 47.3066 -0.489672 0.00854847 0.871864
-16.6916 -11.0634 46.9288 -0.49755 0.0164646 0.8672
-17.2861 -11.8983 46.5792 -0.521877 0.0082159 0.852979
-17.7617 -12.7936 46.3 -0.519517 0.014447 0.854338
-18.094 -14.616 46.1559 -0.534047 0.0346002 0.844687
-18.0422 -15.6131 46.2217 -0.541393 0.0340514 0.840048
-17.8619 -17.1474 46.413 -0.526131 0.0342215 0.849433
-17.4871 -18.224 46.6744 -0.509083 0.0327921 0.860093
-17.0466 -19.1294 46.9695 -0.519297 0.0363099 0.853748
-16.3266 -19.9781 47.4307 -0.495755 0.043274 0.867354
-15.5116 -20.8988 47.9258 -0.465315 0.0407529 0.884139
-14.6314 -21.4176 48.4135 -0.457573 0.0528966 0.887597
-13.5122 -21.6435 49.0018 -0.452615 0.0611386 0.889572
-11.9746 -21.6421 49.7123 -0.393647 0.0565605 0.917516
-11.0547 -21.4858 50.0856 -0.358701 0.0251648 0.932867
-10.2965 -20.8969 50.3553 -0.354082 0.029911 0.93454
-9.21122 -20.2816 50.6942 -0.303222 0.0321394 0.952376
-8.54891 -19.4704 50.8741 -0.286582 0.03957 0.957111
-8.00231 -18.6257 50.9956 -0.267859 0.0465774 0.962199
-7.59021 -17.2971 51.0462 -0.254216 0.0358583 0.966479
-7.19014 -16.0381 51.0961 -0.248995 0.0289157 0.967975
-7.47522 -14.9723 51.0049 -0.252923 0.0157386 0.967358
-7.56961 -13.8906 50.9653 -0.259254 0.00393601 0.965759
-7.90031 -12.9384 50.8642 -0.26602 0.0107968 0.963907
-8.74856 -11.8227 50.5994 -0.301787 0.0282297 0.952328
-9.47434 -10.6095 50.3181 -0.340103 0.0276292 0.939943
-10.3836 -10.1589 49.9663 -0.34986 0.0331802 0.936214
-11.3578 -8.90067 49.5828 -0.384187 0.00829067 0.922901
-11.5149 -7.80982 49.4978 -0.401549 0.00989228 0.915773
-11.0935 -6.4969 49.6695 -0.398451 0.0104308 0.917129
-10.3097 -5.93581 49.9462 -0.336985 0.00132082 0.941499
-9.67931 -4.89961 50.1759 -0.339835 -0.000501592 0.940484
-8.92891 -3.84789 50.4355 -0.306874 0.00231279 0.951369
-8.32252 -2.89493 50.6164 -0.282497 -0.00734898 0.959228
-8.2544 -1.75472 50.6471 -0.291942 -0.00597867 0.956392
-8.02643 -0.467057 50.7252 -0.290248 -0.0107917 0.95688
-8.25251 0.545896 50.6647 -0.29462 -0.00707587 0.955588
-8.56645 2.08395 50.5624 -0.31095 0.00670669 0.950373
-8.84065 3.05609 50.4726 -0.313873 -0.00238379 0.94946
-9.13755 4.167 50.3978 -0.297024 -0.0141714 0.954733
-9.23324 5.18127 50.3783 -0.290574 -0.0172461 0.956693
-9.31107 6.34577 50.3804 -0.28913 -0.0275987 0.95688
-9.31846 7.56445 50.4119 -0.294967 -0.0223691 0.955244
-9.34578 8.62461 50.4216 -0.34248 -0.0241671 0.939061
-9.58003 9.92886 50.3847 -0.322662 -0.0285828 0.946081
-9.81807 10.9719 50.3299 -0.326055 -0.0229852 0.945071
-9.9241 12.1669 50.3093 -0.365266 -0.0195315 0.930632
-9.9068 13.3022 50.348 -0.34247 -0.0146389 0.939304
-9.36424 14.5734 50.5695 -0.326563 -0.036722 0.944461
-8.9428 15.5523 50.7406 -0.312079 -0.0265126 0.949686
-8.3887 16.417 50.9537 -0.302606 -0.0352689 0.952437
-7.8121 17.2488 51.1604 -0.275346 -0.0400629 0.960145
-7.24165 18.7051 51.373 -0.249309 -0.0385768 0.967655
-7.09054 19.7137 51.4442 -0.245353 -0.0386162 0.968628
-6.60147 21.4086 51.6352 -0.223692 -0.0439152 0.973658
-6.22224 22.4346 51.7733 -0.211626 -0.0418243 0.976361
-5.58856 23.2511 51.9336 -0.198778 -0.0419754 0.979145
-3.97231 23.586 52.2547 -0.16019 -0.0493639 0.985634
-2.81027 23.4221 52.4096 -0.135254 -0.0652497 0.98865
-2.60641 23.3923 52.4348 -0.0880988 -0.0497139 0.993701
-8.49066 23.9426 51.2556 -0.292743 -0.0257725 0.955844
-9.1364 24.3099 51.0673 -0.310147 -0.0365377 0.949769
-10.1304 24.2642 50.7259 -0.316523 -0.0531301 0.947096
-11.2351 24.1827 50.3518 -0.32804 -0.0645547 0.942309
-12.6187 23.9538 49.7891 -0.383845 -0.0682575 0.920869
-13.646 23.5016 49.3233 -0.410256 -0.0564277 0.910053
-14.4728 22.6998 48.8845 -0.425977 -0.0551826 0.903049
-15.0892 21.6944 48.5291 -0.440067 -0.0539514 0.89632
-15.4455 20.7043 48.2748 -0.472744 -0.0663838 0.878696
-15.5287 19.7092 48.1532 -0.466961 -0.0563763 0.882374
-15.3644 17.9695 48.1603 -0.465394 -0.037659 0.884302
-15.1773 16.8481 48.2005 -0.464709 -0.0544341 0.883762
-15.0689 15.4449 48.19 -0.454227 -0.0413893 0.889904
-15.1371 14.3551 48.0977 -0.459481 -0.0393159 0.887262
-15.5883 12.9169 47.8053 -0.445558 -0.0471521 0.893981
-16.0333 11.8938 47.5215 -0.497762 -0.0420152 0.866285
-16.473 11.0386 47.2208 -0.501578 -0.0328493 0.864358
-17.0312 10.0325 46.8593 -0.5224 -0.0362223 0.851931
-17.4245 9.0249 46.575 -0.524485 -0.0253735 0.850965
-17.5591 7.32975 46.4633 -0.52686 -0.0141315 0.849834
-17.3232 5.51733 46.5909 -0.514428 -0.0158891 0.857226
-17.0668 4.14919 46.6873 -0.517953 -0.0367306 0.85462
-16.9222 2.87752 46.7547 -0.522498 -0.0040866 0.85263
-16.8016 1.0843 46.7953 -0.497207 -0.0129033 0.867535
-16.6842 -0.35355 46.8485 -0.50538 0.00301875 0.862879
-16.5057 -1.50738 46.9533 -0.50208 0.0012984 0.86482
-15.8816 -2.74801 47.3201 -0.506824 0.00232656 0.862045
-15.3321 -3.5317 47.6271 -0.463049 0.00233365 0.886289
-14.5503 -4.42727 48.0315 -0.455181 0.00933947 0.89035
-13.6253 -5.44026 48.51 -0.451224 0.00562071 0.892393
-12.9438 -5.13167 48.8479 -0.444548 0.0093941 0.895706
-12.1826 -4.2858 49.2059 -0.389319 0.00170397 0.921065
-11.5083 -3.36672 49.4789 -0.37295 0.00770169 0.927819
-10.9539 -2.47964 49.7007 -0.374163 -0.00266864 0.927359
-10.5834 -1.44216 49.8533 -0.372699 -0.00360053 0.927945
-10.4914 -0.313139 49.9041 -0.371881 -0.0127135 0.928193
-10.6699 0.840314 49.8388 -0.34607 0.00258177 0.938205
-10.9639 2.21802 49.7277 -0.345122 0.00195043 0.938556
-11.2033 3.50114 49.6444 -0.364886 0.00260632 0.930664
-11.3589 4.52027 49.5964 -0.371492 -0.0330439 0.927756
-11.4954 5.60157 49.5734 -0.359132 -0.0218092 0.933017
-11.5588 6.87569 49.5637 -0.377852 -0.00686634 0.92584
-11.6496 8.52572 49.5314 -0.379906 0.00310673 0.92502
-11.8341 9.65914 49.4616 -0.400118 -0.0248656 0.916079
-12.1097 10.9679 49.3863 -0.404711 -0.0312571 0.91391
-12.2336 12.2319 49.3816 -0.401371 -0.0391109 0.91508
-12.1743 13.4904 49.4515 -0.391645 -0.0367381 0.919383
-11.9064 14.6053 49.6119 -0.396636 -0.0458118 0.916832
-11.2458 16.1053 49.9717 -0.363546 -0.0412416 0.930009
-10.7676 16.967 50.1751 -0.332833 -0.0370255 0.942258
-10.259 17.8171 50.3873 -0.332096 -0.0355397 0.942575
-9.75185 18.7487 50.6009 -0.334569 -0.0356455 0.941697
-9.45382 19.8187 50.7495 -0.335262 -0.0507283 0.940758
-9.20343 21.2295 50.9147 -0.311191 -0.0379817 0.949166
-8.99235 22.256 51.0267 -0.327096 -0.0332355 0.944407
-8.66761 23.5419 51.1908 -0.309739 -0.0363842 0.949889
-9.59801 23.0968 50.8462 -0.327552 -0.0405881 0.943928
-10.6007 23.4542 50.5228 -0.328598 -0.0648457 0.942088
-11.5865 23.3284 50.1553 -0.33523 -0.0701888 0.93949
-12.7334 23.0411 49.6754 -0.384786 -0.0666597 0.920594
-13.5755 22.4892 49.3005 -0.404092 -0.0473467 0.913049
-14.367 21.4245 48.8668 -0.429965 -0.0469923 0.901621
-14.745 20.4354 48.6122 -0.438642 -0.0643293 0.896356
-14.8112 19.4168 48.5104 -0.448251 -0.0436782 0.892809
-14.7098 18.3719 48.5183 -0.446658 -0.0354375 0.894003
-14.5352 17.3507 48.5578 -0.420777 -0.0547706 0.905457
-14.3801 15.893 48.556 -0.417561 -0.0441999 0.907572
-14.3391 14.8776 48.5272 -0.418281 -0.0425773 0.907319
-14.393 13.8795 48.4512 -0.450578 -0.043233 0.891684
-14.8186 12.6488 48.1691 -0.444172 -0.0478006 0.894647
-15.4323 11.4795 47.84 -0.459163 -0.0333758 0.886811
-15.8995 10.6085 47.544 -0.495766 -0.013576 0.868319
-16.6156 9.17717 47.0778 -0.524048 -0.0248415 0.85125
-16.8579 7.73994 46.9045 -0.526362 -0.0139066 0.850147
-16.7639 6.48088 46.9403 -0.500497 -0.0218095 0.865464
-16.5742 5.34832 47.0203 -0.500637 -0.0243635 0.865314
-16.335 3.9507 47.1197 -0.494113 -0.0268222 0.868951
-16.2222 2.93823 47.1613 -0.496338 -0.0190152 0.867921
-16.1232 1.54172 47.1905 -0.496625 -0.0132938 0.867863
-16.0151 0.113543 47.2282 -0.488842 -0.00480442 0.872281
-15.6645 -1.54354 47.4365 -0.48062 -0.00155684 0.876854
-14.9108 -2.80356 47.8435 -0.468304 0.00871088 0.883525
-14.2746 -3.58047 48.1713 -0.457576 -0.00361704 0.889163
-13.0652 -4.12989 48.7815 -0.444861 -0.00540887 0.895578
-12.3658 -3.21647 49.1301 -0.411043 -0.00262042 0.910999
-11.8053 -2.39113 49.3564 -0.37386 -0.00230626 0.927481
-11.3605 -1.31856 49.5374 -0.377308 -0.00899559 0.926012
-11.2705 -0.321998 49.5917 -0.375394 -0.0140282 0.926751
-11.4741 1.05307 49.5312 -0.372369 -0.0170956 0.927927
-11.714 2.22797 49.4518 -0.345061 0.00130912 0.938579
-11.9979 3.80054 49.3064 -0.389175 0.0181825 0.92098
-12.1572 5.08829 49.2788 -0.405765 -0.0219894 0.913557
-12.2733 6.60978 49.2701 -0.397942 -0.0225584 0.916736
-12.3259 7.72922 49.2564 -0.37932 -0.00151584 0.925252
-12.4434 8.78639 49.2045 -0.394263 0.00967654 0.918786
-12.7413 10.2768 49.0829 -0.405302 -0.0281373 0.913746
-12.925 11.2653 49.03 -0.411961 -0.0384218 0.910334
-12.9327 12.7763 49.094 -0.438516 -0.04259 0.897649
-12.8866 13.7759 49.1543 -0.422639 -0.0332983 0.905686
-12.6974 14.8481 49.2809 -0.395176 -0.0403309 0.917699
-12.0713 16.1686 49.6144 -0.400266 -0.0406032 0.915499
-11.4949 17.238 49.9223 -0.400299 -0.0510066 0.914964
-10.7895 18.4383 50.2233 -0.332144 -0.0344646 0.942599
-10.2732 19.6347 50.4496 -0.333204 -0.0355541 0.942184
-10.0667 20.6315 50.5733 -0.339649 -0.0477876 0.939338
-9.75881 22.2147 50.7598 -0.33342 -0.0373925 0.942003
-9.7041 22.4007 50.7853 -0.327471 -0.0329076 0.944288
-10.5924 22.2257 50.4578 -0.340822 -0.041253 0.939222
-10.7707 20.8667 50.3307 -0.34075 -0.0466072 0.938996
-11.0878 19.5899 50.1594 -0.334121 -0.033623 0.94193
-11.6533 18.4049 49.9173 -0.361994 -0.0388059 0.93086
-12.2193 17.5019 49.6201 -0.400299 -0.0510066 0.914964
-12.9086 16.265 49.252 -0.409664 -0.0415998 0.911236
-13.6612 17.0853 48.9471 -0.417997 -0.0559937 0.906672
-13.9365 18.0738 48.889 -0.42119 -0.0637438 0.90473
-14.0977 19.1224 48.8541 -0.448008 -0.0432537 0.892947
-14.045 20.1493 48.9391 -0.449874 -0.0492642 0.891731
-13.6954 21.0869 49.1701 -0.433386 -0.0550729 0.899475
-13.0107 21.8825 49.5036 -0.380828 -0.0444535 0.923575
-11.8894 22.4492 49.9825 -0.376961 -0.0549918 0.924489
-10.8946 22.4631 50.3578 -0.346896 -0.0412737 0.936988
-10.6305 22.4917 50.4558 -0.342349 -0.0407621 0.938686
-11.4789 21.3724 50.0964 -0.346021 -0.0410078 0.937313
-11.5906 20.2841 50.0054 -0.335766 -0.0370296 0.941208
-12.1229 19.0107 49.7477 -0.390163 -0.0448376 0.919653
-12.9763 18.03 49.3255 -0.396481 -0.058911 0.916151
-13.3938 19.2996 49.2197 -0.421781 -0.0475907 0.904899
-12.9855 20.798 49.4682 -0.39129 -0.039871 0.919382
-12.0555 21.3695 49.8723 -0.376034 -0.0355538 0.925924
-11.7797 21.4761 49.9885 -0.362299 -0.0358622 0.931253
-12.5715 19.7385 49.5922 -0.387226 -0.04291 0.920981
-12.621 19.6213 49.5661 -0.389642 -0.0428381 0.919967
-13.6871 15.8217 48.8721 -0.418319 -0.0426693 0.907297
-13.584 14.6397 48.8641 -0.418282 -0.0425747 0.907319
-13.6716 15.354 48.8573 -0.418299 -0.0426245 0.907309
-13.6225 12.9883 48.7739 -0.435243 -0.0515169 0.898835
-14.4718 11.6475 48.2998 -0.437422 -0.0152038 0.899095
-14.9959 10.7423 48.0379 -0.444298 -0.0215097 0.895455
-15.7968 9.28622 47.5682 -0.459558 -0.0222182 0.887735
-16.1204 8.09059 47.3518 -0.488457 -0.0310333 0.872036
-16.0699 6.63019 47.3446 -0.490315 -0.014006 0.871432
-15.8321 5.15694 47.4432 -0.494139 -0.0275258 0.86892
-15.6506 4.15269 47.5098 -0.488416 -0.030388 0.872081
-15.5179 2.96714 47.5602 -0.489016 -0.0139789 0.872163
-15.3992 1.05886 47.5927 -0.490714 -0.0171723 0.871152
-15.2878 0.0496625 47.6355 -0.489133 -0.00532272 0.872109
-15.0722 -1.0105 47.7601 -0.472902 -0.00908275 0.881068
-14.3944 -2.22497 48.1116 -0.470703 -8.26968e-05 0.882244
-13.6402 -2.91211 48.4971 -0.45161 -0.0028916 0.892211
-12.6144 -2.20742 49.0227 -0.416029 -0.00644691 0.908541
-12.098 -0.992198 49.242 -0.377575 -0.0137504 0.925875
-12.0889 0.377263 49.2709 -0.374599 -0.0179396 0.927013
-12.4221 2.16665 49.1252 -0.440243 -0.000568782 0.897745
-12.6832 3.55752 49.02 -0.416068 0.00334841 0.908781
-12.8584 4.81037 48.9516 -0.419606 -0.0127847 0.907616
-12.9738 6.00689 48.9216 -0.419817 -0.0372449 0.906844
-13.0492 7.41324 48.9439 -0.43392 -0.0284682 0.900328
-13.1469 8.57329 48.8945 -0.40741 0.0176313 0.913075
-13.4763 10.019 48.7471 -0.40707 -0.0266737 0.913007
-13.6939 11.2303 48.6699 -0.435259 -0.018579 0.900095
-13.5991 12.3218 48.7469 -0.438516 -0.04259 0.897649
-14.259 9.68009 48.3773 -0.445175 -0.0234339 0.894949
-13.8564 8.53015 48.5578 -0.448272 -0.0135906 0.893794
-13.7891 7.42606 48.5731 -0.447783 -0.0201007 0.893916
-13.7343 5.953 48.5671 -0.433685 -0.0290252 0.900432
-13.5861 4.82729 48.6085 -0.440411 -0.024999 0.897448
-13.3341 3.08964 48.6938 -0.440819 -0.014189 0.897483
-13.0897 2.1138 48.7972 -0.441679 -0.00126927 0.897059
-12.9304 0.812279 48.8945 -0.452155 0.00546429 0.891841
-12.8276 -0.313254 48.9484 -0.427896 -0.0119489 0.902881
-13.344 -1.68837 48.667 -0.448717 -0.019178 0.893468
-14.234 -1.13375 48.2077 -0.468334 -0.00850677 0.88351
-14.5288 -0.123847 48.061 -0.480345 -0.00123039 0.877002
-14.7273 1.04691 47.9598 -0.462048 -0.00145879 0.886854
-14.7326 2.37426 47.9698 -0.462164 -0.0274484 0.886368
-14.832 3.49069 47.9522 -0.47422 -0.0202823 0.880013
-14.9813 4.52825 47.8975 -0.474433 -0.0230299 0.879828
-15.2667 5.73682 47.7679 -0.463304 -0.0213126 0.885912
-15.3677 6.90625 47.7435 -0.489084 -0.0140323 0.872124
-15.3477 8.38348 47.7942 -0.473358 -0.0195308 0.880435
-14.9905 9.30261 47.9867 -0.45938 -0.00727807 0.88821
-14.76 9.35477 48.1063 -0.458656 -0.0209565 0.88826
-14.3754 6.77518 48.2652 -0.454928 -0.0236948 0.890172
-14.3304 6.69294 48.2859 -0.461284 -0.0278695 0.886815
-13.9355 1.39102 48.3726 -0.461118 -0.00109815 0.887338
-13.6118 0.14538 48.5394 -0.461609 -0.000214072 0.887083
-14.0199 1.07068 48.3284 -0.461408 -0.00106019 0.887188
-13.5832 -7.52952 48.5306 -0.450226 -0.00456388 0.892903
-13.0666 -8.894 48.8151 -0.427258 0.0217461 0.90365
-12.6748 -9.88134 49.0016 -0.411339 0.033442 0.910869
-11.9236 -10.7869 49.3677 -0.393616 0.016292 0.91913
-10.6919 -11.9109 49.9118 -0.390978 0.0196121 0.920175
-10.0255 -12.6655 50.1788 -0.330865 0.0410863 0.942783
-9.48306 -13.5471 50.4082 -0.305627 0.022245 0.951314
-9.09905 -14.6811 50.5455 -0.278217 0.0316759 0.959996
-8.95097 -15.8014 50.6095 -0.327889 0.0219799 0.944199
-9.11329 -17.1096 50.5972 -0.299119 0.0197475 0.95401
-9.5564 -18.1797 50.5061 -0.291103 0.053537 0.95519
-10.1739 -18.9332 50.2876 -0.370292 0.0522959 0.92712
-11.5687 -19.8257 49.7754 -0.397366 0.0596974 0.915716
-12.7214 -20.1075 49.292 -0.413759 0.0357942 0.909302
-13.839 -19.9412 48.7435 -0.436246 0.0339714 0.899186
-14.7009 -19.4544 48.3018 -0.46446 0.0303433 0.885073
-15.3932 -18.7873 47.9153 -0.483044 0.024782 0.875132
-15.9532 -18.0145 47.5717 -0.50665 0.0321511 0.861552
-16.3635 -17.128 47.2977 -0.507863 0.032313 0.86083
-16.6108 -16.1433 47.1152 -0.496791 0.0364217 0.867105
-16.6845 -15.1277 47.03 -0.496053 0.0286375 0.867783
-16.4907 -13.7783 47.1088 -0.510001 0.0319575 0.859285
-15.7499 -12.3063 47.4849 -0.494472 0.0261136 0.868785
-15.0138 -11.4291 47.8677 -0.484541 0.0162304 0.87455
-14.3789 -10.5869 48.1906 -0.467103 0.0139219 0.884093
-13.852 -9.3987 48.4461 -0.45423 0.0282692 0.890326
-13.509 -8.12699 48.5686 -0.443274 0.032895 0.895782
-13.4985 -8.04454 48.5707 -0.446835 0.0143299 0.894296
-13.386 -10.5081 48.7035 -0.435137 0.020151 0.899653
-12.5371 -11.2203 49.1125 -0.402686 0.0241237 0.914931
-11.8489 -11.8864 49.4199 -0.393076 0.0236009 0.919203
-11.138 -12.5673 49.7404 -0.384697 0.0204243 0.922785
-10.4927 -13.3502 50.0175 -0.378609 0.0140794 0.925449
-10.0055 -14.3689 50.241 -0.353396 0.0161002 0.934856
-9.74164 -15.7078 50.333 -0.329522 -0.000102838 0.944148
-9.96107 -17.2241 50.3263 -0.344907 0.0329122 0.9378
-10.5072 -18.1569 50.1302 -0.374947 0.0266305 0.926663
-11.2696 -18.8016 49.8407 -0.39232 0.0529828 0.918278
-12.7438 -19.2702 49.2449 -0.389016 0.0451976 0.920113
-13.7483 -19.1054 48.7605 -0.437102 0.0280145 0.898975
-14.6033 -18.5162 48.3296 -0.452632 0.0221679 0.891212
-15.2191 -17.7833 47.9826 -0.481313 0.0309994 0.875876
-15.821 -16.3374 47.5761 -0.497146 0.0367556 0.866888
-15.9773 -15.035 47.431 -0.495659 0.0293181 0.867988
-15.8286 -14.0284 47.4908 -0.487321 0.0229681 0.872877
-15.2846 -12.9258 47.7575 -0.479913 0.0203304 0.87708
-14.6647 -12.1206 48.0766 -0.46881 0.0294653 0.882705
-14.0314 -11.3402 48.378 -0.459984 0.00835879 0.887887
-13.4458 -10.6817 48.674 -0.459037 0.00797636 0.888381
-13.0647 -11.9229 48.8902 -0.436989 0.0240421 0.89882
-13.9767 -12.4496 48.4453 -0.458876 0.034175 0.887841
-14.6471 -13.2713 48.1141 -0.479235 0.0230257 0.877381
-15.1616 -14.5417 47.872 -0.481799 0.0323899 0.875672
-15.2284 -15.6138 47.8846 -0.490742 0.040597 0.870325
-14.8631 -16.9555 48.1456 -0.491446 0.0371077 0.870113
-14.1701 -17.8802 48.5223 -0.435038 0.0236551 0.900101
-13.3005 -18.3696 48.9517 -0.431845 0.0282108 0.901493
-12.2075 -18.367 49.4298 -0.396323 0.00480831 0.918099
-11.2247 -17.7487 49.8408 -0.36449 0.0144706 0.931095
-10.5668 -16.5411 50.0729 -0.363001 0.022129 0.931526
-10.5734 -15.3532 50.043 -0.353899 0.0158619 0.934641
-10.9445 -14.1172 49.8493 -0.380469 0.0321286 0.924232
-11.5801 -13.2184 49.568 -0.387856 0.0168656 0.921536
-12.279 -12.4953 49.2516 -0.393076 0.0236009 0.919203
-12.6809 -12.1014 49.0697 -0.406593 0.0162849 0.913316
-12.7797 -13.1303 49.0337 -0.420717 0.00868981 0.90715
-13.7485 -13.4027 48.5797 -0.426115 0.0264484 0.903987
-14.3859 -14.2876 48.2908 -0.483542 0.0336266 0.874672
-14.5361 -15.7773 48.2758 -0.483063 0.0412766 0.87461
-14.1536 -16.718 48.4964 -0.429262 0.0229077 0.902869
-13.4509 -17.3968 48.8541 -0.43039 0.0263253 0.902256
-12.49 -17.5753 49.3005 -0.40781 0.0225795 0.912788
-11.3988 -16.6146 49.7447 -0.388322 0.0318903 0.920955
-11.4155 -15.0531 49.6848 -0.388763 0.0240926 0.921023
-12.0114 -13.8783 49.3988 -0.400045 0.0306775 0.9159
-12.0439 -13.8443 49.3826 -0.417244 0.0242488 0.908336
-12.7135 -14.277 49.0971 -0.412032 0.0367179 0.910424
-12.1684 -15.2414 49.3719 -0.388594 0.0242781 0.921089
-12.2872 -16.5743 49.3665 -0.399662 0.0302508 0.916087
-13.4214 -16.381 48.8358 -0.428627 0.0232074 0.903159
-13.7742 -14.6583 48.6316 -0.420491 0.02849 0.906784
-13.0238 -13.9999 48.9442 -0.412957 0.0394049 0.909897
12.2011 3.40497 49.6579 0.370565 -0.0307742 0.928188
11.8136 4.32299 49.8295 0.360204 -0.0225788 0.9326
11.9436 5.32832 49.8003 0.362879 -0.0160263 0.931693
12.5474 6.4593 49.5779 0.366597 -0.0121152 0.9303
13.0892 7.29964 49.3667 0.389535 -0.0177234 0.920841
14.1476 7.41949 48.8955 0.412432 -0.0263373 0.910604
14.7075 6.24847 48.6137 0.455987 -0.00942716 0.889931
14.9025 5.18379 48.4816 0.444468 -0.0311186 0.895254
14.6408 3.71685 48.5898 0.44251 0.003039 0.896756
13.9232 3.01554 48.933 0.410081 -0.0259726 0.910959
12.9861 2.89588 49.3156 0.386359 0.00118253 0.922348
12.8731 2.97868 49.3628 0.383153 -0.0193689 0.92324
12.7241 4.03406 49.4697 0.371308 -0.0300311 0.92794
12.8482 5.58301 49.4492 0.383303 -0.00397796 0.92332
13.4261 6.38755 49.1923 0.403406 -0.0145021 0.914783
14.1918 5.7722 48.8532 0.425172 -0.0138179 0.904629
14.1561 4.54995 48.8262 0.441157 -0.0324844 0.896842
13.6165 3.80316 49.0931 0.411942 -0.0191746 0.910149
15.0987 13.4913 48.6022 0.421004 -0.0376644 0.906274
14.7084 14.4365 48.8239 0.417054 -0.0457565 0.907729
14.4329 15.4516 49.0019 0.413892 -0.0441148 0.909248
14.1762 16.4275 49.1653 0.409243 -0.0480582 0.911159
13.9136 17.4022 49.3349 0.405643 -0.0477271 0.912777
13.5077 18.9294 49.5976 0.406 -0.0505205 0.91247
12.7901 20.4908 49.9766 0.371537 -0.0293095 0.927563
12.2385 21.4998 50.2338 0.347639 -0.0539663 0.936054
12.9375 20.7896 49.9265 0.38151 -0.0538672 0.922783
14.0956 20.2426 49.4039 0.408108 -0.0483443 0.911653
15.1986 19.8468 48.8802 0.420567 -0.0436562 0.906183
16.5947 19.4626 48.1506 0.48495 -0.0460666 0.873321
17.2071 18.6856 47.7724 0.484907 -0.043184 0.873499
