-2.10947 41.2814 71.73 -0.155347 -0.032139 0.987245
-1.02624 41.7292 71.8357 -0.0359434 -0.0678241 0.99705
0.0657975 41.3708 71.846 -0.0308578 -0.0597599 0.99767
-0.98814 40.9209 71.7883 -0.0366895 -0.0524103 0.997951
-1.98063 40.9169 71.7435 -0.106415 -0.0421994 0.991902
-2.00843 39.9244 71.6761 -0.0583451 -0.0673693 0.996019
-0.234816 40.4482 71.7916 -0.0168537 -0.0622618 0.997671
1.22188 41.402 71.7689 0.0811729 -0.0181892 0.996534
0.763914 42.2462 71.8778 0.0858334 -0.0838833 0.992772
-0.0961904 42.7464 71.9152 0.00696777 -0.0426381 0.999062
-1.43505 42.4941 71.8518 -0.112064 -0.0234332 0.993413
-2.55428 41.8069 71.6845 -0.158323 -0.0437708 0.986408
-3.22809 40.3751 71.5308 -0.161894 -0.0219982 0.986563
-2.45572 39.8835 71.6464 -0.110744 -0.0450252 0.991238
-2.57223 39.0907 71.5883 -0.0939967 -0.0759252 0.991887
-1.55679 39.2225 71.6574 -0.0580877 -0.055562 0.996764
0.190026 39.8495 71.7474 0.00618948 -0.069477 0.997559
1.74587 40.4609 71.709 0.0766592 -0.0168869 0.996901
2.12374 41.4838 71.6972 0.0826717 -0.0506293 0.99476
1.49688 42.5742 71.8422 0.119276 -0.0589412 0.990226
0.40276 43.4855 71.9376 0.0124428 -0.0316534 0.999421
-0.855448 43.5198 71.9556 -0.0559023 -0.0525762 0.995116
-1.80889 43.181 71.8255 -0.120587 -0.022931 0.992426
-3.24903 42.2466 71.5892 -0.161888 -0.0423445 0.9859
-4.01344 41.4047 71.4165 -0.226332 -0.0282949 0.973436
-4.21299 40.3862 71.3109 -0.234627 -0.0607317 0.970163
-3.64681 39.4068 71.3787 -0.228571 -0.0650345 0.971352
-2.79936 39.0996 71.5601 -0.178158 -0.0757065 0.979448
-2.68162 38.3108 71.497 -0.127289 -0.0941378 0.987381
-1.41412 38.4774 71.6242 -0.0580769 -0.0557313 0.996755
-0.264508 38.8847 71.7053 -0.0228959 -0.0474586 0.998256
1.2506 39.4824 71.7203 0.0374111 -0.0464957 0.997614
2.32161 39.848 71.6584 0.072604 -0.0142639 0.997259
3.42364 40.648 71.5509 0.144673 0.0301498 0.989006
2.64313 42.1236 71.6509 0.148868 -0.030027 0.988396
2.12018 43.098 71.7638 0.152251 -0.0336679 0.987768
1.46836 43.8825 71.909 0.0455399 -0.0142125 0.998856
0.23098 44.3286 71.9612 0.0356971 -0.0365594 0.99832
-0.851838 44.33 71.9924 -0.0409754 -0.0415988 0.996048
-2.32309 43.7989 71.7926 -0.124585 -0.0544574 0.990713
-3.20318 43.2354 71.6239 -0.210138 -0.0434778 0.976366
-4.47368 42.1617 71.3315 -0.210605 -0.0175062 0.977414
-5.0107 41.2425 71.1605 -0.242746 -0.0395618 0.969282
-5.09201 40.0734 71.0731 -0.241487 -0.0586085 0.968633
-4.57584 39.0781 71.1386 -0.229299 -0.0578248 0.97161
-3.24209 38.3708 71.4152 -0.228541 -0.0528964 0.972095
-3.11242 38.3276 71.4435 -0.178158 -0.0757065 0.979448
-3.09921 37.501 71.3915 -0.15729 -0.061239 0.983887
-1.8634 37.5417 71.5303 -0.122162 -0.0664885 0.989948
-0.724995 37.891 71.6232 -0.0460457 -0.0615846 0.997039
0.794122 38.5126 71.6919 0.0349997 -0.0468245 0.997611
1.84012 38.9159 71.6446 0.0716086 -0.0596384 0.995642
3.13044 39.2507 71.5662 0.112538 -0.0773338 0.98976
4.31537 39.4733 71.3239 0.260164 -0.0408917 0.964696
5.4266 39.4412 71.0186 0.267428 -0.0439109 0.962566
4.62301 39.8958 71.2606 0.26191 -0.0500519 0.963794
4.21149 40.9042 71.4247 0.205534 -0.00585334 0.975935
3.60966 41.8789 71.5011 0.148255 -0.0298525 0.988495
3.06485 42.9595 71.6131 0.149415 -0.0307901 0.988287
2.53261 43.9388 71.755 0.155551 -0.0678455 0.985495
1.77892 44.7278 71.9103 0.0488784 -0.0435883 0.997524
0.460912 45.1392 72.0012 0.0439625 -0.0634221 0.997016
-0.819195 45.1499 72.0284 -0.0459419 -0.0431669 0.996427
-2.25183 44.7004 71.8429 -0.131661 -0.041579 0.990422
-3.11515 44.2077 71.6949 -0.15121 -0.0402653 0.98768
-4.15847 43.519 71.4405 -0.204563 -0.0744421 0.976016
-4.94829 42.8332 71.2407 -0.226575 -0.028482 0.973383
-5.59472 41.967 71.0384 -0.291768 -0.0207908 0.956261
-5.91106 40.9902 70.9226 -0.309046 -0.0299319 0.950342
-5.7272 39.3455 70.8499 -0.265021 -0.0728539 0.961487
-4.72902 38.1276 71.0502 -0.236861 -0.0536196 0.970054
-3.76322 37.6379 71.254 -0.221323 -0.05882 0.973384
-3.78733 36.7923 71.1934 -0.219197 -0.063973 0.973568
-2.2913 36.6569 71.4426 -0.0951291 -0.0588888 0.993361
-0.993276 36.9604 71.5491 -0.0447167 -0.0687478 0.99663
0.427266 37.5248 71.646 -0.0122436 -0.0896294 0.995489
1.37629 37.9641 71.6178 0.0686893 -0.0614972 0.995741
2.62583 38.366 71.5538 0.110528 -0.0776298 0.989972
3.76095 38.5971 71.4066 0.148525 -0.096769 0.984163
4.8332 38.6434 71.1472 0.267599 -0.0421169 0.962588
5.85272 38.4459 70.8508 0.264136 -0.0486293 0.963245
6.75045 38.0777 70.5865 0.276645 -0.0661664 0.958511
7.48385 37.3483 70.3119 0.302826 -0.0568766 0.951287
8.01095 36.5086 70.0826 0.314634 -0.0446272 0.94794
8.4683 35.6384 69.867 0.356007 -0.0465285 0.933322
9.0038 34.8034 69.6189 0.358433 -0.0494634 0.932242
9.62434 34.0243 69.3368 0.359384 -0.0508742 0.931802
10.5264 33.4934 68.9394 0.445065 -0.0275896 0.895072
12.0288 33.569 68.1929 0.447362 -0.0256367 0.893985
12.611 34.3699 67.9502 0.426662 -0.0180551 0.904099
12.686 35.7075 67.9192 0.442729 -0.0143449 0.896376
12.3731 36.7602 68.0993 0.463575 0.00683645 0.886031
11.8761 37.6379 68.3521 0.465648 0.00448828 0.884951
11.2301 38.3629 68.6926 0.468026 0.00178896 0.883713
10.4671 38.883 69.0885 0.433986 -0.0162163 0.900767
9.43955 39.1538 69.5916 0.435312 -0.0200591 0.900056
8.1633 39.3176 70.1572 0.367689 -0.0261194 0.929455
7.12351 39.5673 70.5527 0.311076 -0.027354 0.948991
6.11774 40.0664 70.851 0.266791 -0.0351557 0.963112
5.33172 40.695 71.1047 0.274792 -0.0450972 0.960445
4.68368 41.5318 71.329 0.205534 -0.00585334 0.975935
4.13718 42.4892 71.4338 0.172697 -0.00767856 0.984942
3.49228 43.8405 71.5942 0.169222 -0.0709471 0.982947
2.93914 44.8012 71.7471 0.158307 -0.0653596 0.985224
2.0167 45.5831 71.9338 0.0813328 -0.0443978 0.995697
0.985706 45.9235 72.0316 0.0600924 -0.0561946 0.996377
-0.699692 45.9753 72.0662 0.00967305 -0.0478395 0.998808
-1.98537 45.6849 71.9192 -0.128163 -0.0331942 0.991161
-2.90736 45.2363 71.7676 -0.154082 -0.037287 0.987354
-3.75764 44.7108 71.6128 -0.181285 -0.0545186 0.981504
-4.64562 44.1145 71.3836 -0.236215 -0.0579328 0.969335
-5.56931 43.3359 71.0827 -0.295817 -0.0394879 0.954353
-6.45786 41.912 70.774 -0.309379 -0.0318731 0.950189
-6.71069 40.8965 70.6425 -0.325997 -0.0407437 0.944492
-6.61813 39.5103 70.6168 -0.29488 -0.055758 0.953249
-6.19062 38.4758 70.6843 -0.26553 -0.0326021 0.963551
-5.35943 37.5704 70.8655 -0.237907 -0.0517622 0.969906
-4.4965 37.037 71.0462 -0.228462 -0.0588975 0.971742
-4.49772 36.1649 70.9995 -0.225421 -0.0504962 0.97291
-5.40656 36.61 70.8035 -0.241036 -0.0514908 0.969131
-6.35854 37.4019 70.572 -0.284767 -0.0429516 0.957421
-6.96818 38.2392 70.4286 -0.307277 -0.0553838 0.949999
-7.45557 39.7272 70.3288 -0.350549 -0.0536269 0.935007
-7.50416 40.8732 70.3669 -0.326979 -0.0396461 0.944198
-6.92385 42.736 70.6492 -0.352314 -0.0305731 0.934906
-6.33797 43.6691 70.8584 -0.296161 -0.0421716 0.954117
-5.3274 44.5817 71.2165 -0.274783 -0.0407897 0.960589
-4.37379 45.2371 71.5137 -0.273799 -0.0265087 0.961194
-3.44667 45.8261 71.7031 -0.16173 -0.033259 0.986274
-2.32872 46.4123 71.8904 -0.133899 -0.0130341 0.990906
-1.21651 46.7242 72.0407 -0.119811 -0.0236979 0.99244
0.136326 46.8026 72.0934 0.020486 -0.0273263 0.999414
1.34386 46.6861 72.0377 0.0778623 -0.0449358 0.995951
2.60283 46.2918 71.9169 0.121005 -0.0602439 0.989935
3.78885 44.9862 71.623 0.158759 -0.0714535 0.984712
4.43135 43.651 71.4069 0.182519 -0.0762325 0.98024
4.94274 42.6167 71.2935 0.172697 -0.00767856 0.984942
5.77335 41.423 71.0073 0.282763 -0.0249996 0.958864
6.75332 40.6531 70.6953 0.271805 -0.0396178 0.961514
7.75797 40.2252 70.326 0.350269 -0.0149882 0.936528
8.73987 40.0354 69.9539 0.37641 -0.0438883 0.924718
9.66535 39.9223 69.5218 0.424085 -0.0569071 0.903826
10.9605 39.5203 68.8401 0.476075 -0.0174328 0.879105
12.0352 38.6373 68.2651 0.468043 -0.00323215 0.883682
12.834 37.478 67.8523 0.504026 0.0175043 0.862187
13.2741 36.3625 67.6059 0.537815 0.038075 0.842132
13.5202 35.2286 67.4997 0.527635 0.0332864 0.848818
13.3634 34.0861 67.5852 0.431524 -0.0193571 0.901807
12.8799 33.2037 67.7828 0.421911 -0.0328388 0.906042
11.928 32.6192 68.216 0.445299 -0.0313162 0.894814
10.963 32.55 68.6899 0.44135 -0.0362725 0.896601
9.85421 32.8999 69.1951 0.369072 -0.0467077 0.928182
9.03853 33.5196 69.5387 0.361215 -0.0417435 0.931546
8.43315 34.3467 69.8141 0.358433 -0.0494634 0.932242
7.90901 35.2208 70.0502 0.335228 -0.0524729 0.94067
6.93013 36.7843 70.4543 0.314634 -0.0446272 0.94794
6.2379 37.4611 70.7045 0.281545 -0.0382585 0.958595
4.36697 37.8687 71.2431 0.235997 -0.0417409 0.969788
3.26898 37.7409 71.4084 0.147188 -0.041505 0.988237
2.09337 37.4215 71.5382 0.0816607 -0.0628842 0.994552
1.0294 36.9956 71.5884 0.0370398 -0.0628459 0.99678
-0.421645 36.3153 71.5265 -0.0105608 -0.0878578 0.996073
-1.79455 35.915 71.4217 -0.071776 -0.0784662 0.994328
-2.8484 35.8224 71.3317 -0.126042 -0.0949015 0.986374
-4.26222 36.0856 71.0478 -0.216599 -0.0493599 0.975012
-4.39906 35.2875 70.9752 -0.225679 -0.0529822 0.972727
-5.9417 35.9859 70.6369 -0.242588 -0.0497318 0.968848
-6.86135 36.7501 70.3859 -0.318175 -0.0431633 0.94702
-7.54809 37.7011 70.2014 -0.337631 -0.0526804 0.939595
-7.99821 38.732 70.0744 -0.352622 -0.0373258 0.935019
-8.27887 39.993 70.0346 -0.386953 -0.0289003 0.920523
-8.1205 41.7044 70.1446 -0.398803 -0.0261387 0.916104
-7.73641 42.8069 70.326 -0.373722 -0.0369275 0.926803
-7.24323 43.7535 70.5628 -0.379348 -0.0302108 0.924693
-6.29498 44.8136 70.9335 -0.32548 -0.019521 0.945328
-5.43119 45.4679 71.2096 -0.283217 -0.0108562 0.958961
-3.89848 46.4614 71.6504 -0.216506 -0.0167831 0.974349
-2.57358 47.1518 71.8665 -0.135757 -0.0130825 0.990656
-1.50887 47.5187 72.0139 -0.13156 -0.0130478 0.991222
0.248219 47.6299 72.1137 0.012702 -0.0178481 0.999703
1.88468 47.4457 72.0289 0.108166 -0.0165557 0.993194
2.94662 47.0864 71.881 0.176236 -0.011762 0.98346
4.21111 45.8603 71.5723 0.211995 -0.0269115 0.9769
4.87615 44.597 71.3717 0.238363 -0.0236156 0.970889
5.31115 43.5333 71.2322 0.179065 -0.0404734 0.982305
5.87746 42.5059 71.0152 0.283912 -0.0462252 0.95773
6.70305 41.6404 70.7381 0.301768 -0.0207896 0.952949
7.70432 41.0933 70.3825 0.337761 -0.0427259 0.940261
8.62132 40.8417 70.0404 0.37641 -0.0438883 0.924718
9.54888 40.7494 69.6193 0.416613 -0.0311962 0.908519
10.5365 40.5647 69.1027 0.46373 -0.0341075 0.885018
11.3472 40.198 68.6437 0.476843 -0.0172187 0.878701
12.173 39.597 68.1936 0.505827 0.0191635 0.862422
13.0099 38.6814 67.7012 0.545838 0.0139682 0.837714
13.4842 37.8086 67.4195 0.543966 0.0276317 0.838652
13.8349 36.8313 67.228 0.530229 0.0494767 0.846399
14.163 35.8352 67.0768 0.527343 0.0401597 0.848676
14.2116 34.6244 67.0956 0.525211 0.0367689 0.850174
13.8899 33.407 67.3092 0.45627 -0.0343217 0.888746
13.1395 32.3245 67.6234 0.428836 -0.0386011 0.902554
11.7578 31.6857 68.2682 0.425598 -0.0144644 0.904797
10.6816 31.73 68.7924 0.40685 -0.0479762 0.911482
9.76484 32.0194 69.1794 0.369635 -0.0574918 0.927382
8.58284 32.8799 69.6763 0.335932 -0.0607614 0.939887
7.7052 34.1545 70.0461 0.307572 -0.0628734 0.949313
6.99769 35.4434 70.3773 0.307456 -0.0623432 0.949509
5.87339 36.7223 70.7829 0.292485 -0.0253347 0.955915
4.92117 37.0594 71.0661 0.276233 -0.0216891 0.960846
3.90428 37.0655 71.285 0.17509 -0.0500054 0.982971
2.76873 36.8359 71.4319 0.0951244 -0.0705749 0.99296
1.33602 36.3065 71.5293 0.0810688 -0.0632883 0.994589
0.235539 35.7278 71.4831 -0.0166228 -0.0636401 0.997834
-0.814571 35.3391 71.441 -0.0209616 -0.0697108 0.997315
-1.86804 35.0842 71.3446 -0.0759585 -0.0890864 0.993119
-3.53844 35.0831 71.1347 -0.17601 -0.100326 0.979246
-3.98698 35.181 71.0616 -0.199696 -0.0766435 0.97638
-4.30608 34.4485 70.9231 -0.207143 -0.111601 0.971668
-2.94055 34.2153 71.1486 -0.16933 -0.105312 0.979912
-1.75904 34.303 71.2851 -0.0838869 -0.0832983 0.992988
-0.223332 34.6673 71.4045 -0.0250655 -0.0767255 0.996737
0.932712 35.179 71.4596 0.0146761 -0.073959 0.996696
2.21631 35.8562 71.4236 0.0940853 -0.0442486 0.994579
3.2263 36.1554 71.3397 0.0955643 -0.0575177 0.993674
4.21011 36.3242 71.1777 0.192518 -0.0625125 0.97929
5.42331 36.1719 70.9018 0.281972 -0.0245407 0.959087
6.46289 35.0009 70.5161 0.286849 -0.0691602 0.955476
6.93119 34.0557 70.2905 0.308169 -0.0642212 0.949045
7.44373 33.1366 70.079 0.304397 -0.0479328 0.951338
8.09979 32.2702 69.807 0.32827 -0.0575252 0.942831
8.97359 31.5239 69.456 0.329743 -0.0558153 0.942418
10.387 30.9583 68.8614 0.364847 -0.0583656 0.929206
11.39 30.8306 68.4251 0.421263 -0.0153972 0.906808
12.5116 30.9632 67.9017 0.427221 -0.0156507 0.904011
13.4096 31.482 67.47 0.444592 -0.0119435 0.895644
14.2658 32.5262 67.0736 0.476194 -0.027397 0.878908
14.9209 34.0075 66.6861 0.523974 0.0282556 0.851265
14.9435 35.6106 66.6025 0.521181 0.0364691 0.852664
14.6592 36.6198 66.7235 0.533277 0.0541487 0.844202
14.1043 38.2036 67.0071 0.542873 0.0228211 0.839505
13.605 39.1196 67.3078 0.549448 0.00571019 0.835508
12.9835 39.8855 67.7115 0.528533 0.0129792 0.848425
12.2366 40.5219 68.1367 0.506103 0.00439706 0.862352
11.1608 41.1774 68.7917 0.505748 -0.0327118 0.86166
10.2013 41.4755 69.3367 0.451373 -0.0330426 0.890971
8.98888 41.6298 69.9055 0.417462 -0.0271106 0.908224
7.5868 42.0319 70.4477 0.321426 -0.0189092 0.946743
6.55313 42.8817 70.8223 0.301155 -0.0370459 0.952832
5.80751 44.4375 71.1373 0.299724 -0.0566028 0.952338
5.28534 45.6081 71.303 0.240199 -0.0397943 0.969907
4.70651 46.608 71.485 0.225819 -0.0315968 0.973541
4.03457 47.3393 71.6518 0.212304 -0.027991 0.976803
2.4774 48.1534 71.9397 0.140771 0.0188436 0.989818
1.49949 48.3266 72.0722 0.141569 0.027038 0.989554
0.341996 48.4736 72.1191 0.0117923 -0.00766548 0.999894
-1.14385 48.4377 72.054 -0.117449 0.0040841 0.99307
-2.24659 48.1244 71.922 -0.134893 0.00177406 0.990738
-3.93506 47.3067 71.6275 -0.199326 0.0094919 0.979846
-5.0378 46.653 71.3349 -0.272002 -0.0130832 0.962205
-6.1601 45.8951 70.9867 -0.3058 -0.00657182 0.952073
-7.11833 45.1567 70.6561 -0.322974 -0.0146513 0.946293
-7.91158 44.1958 70.2933 -0.38793 -0.0293519 0.921187
-8.54526 42.8706 69.9909 -0.416841 -0.0244942 0.908283
-8.86599 41.8368 69.7978 -0.427176 -0.0385588 0.903346
-9.03894 40.3256 69.681 -0.422249 -0.000636065 0.90648
-8.90297 39.1762 69.7382 -0.431486 -0.0179779 0.901888
-8.59948 38.212 69.8138 -0.387278 -0.0600257 0.920005
-8.12751 37.2197 69.9465 -0.387649 -0.0578467 0.919984
-7.56045 36.3154 70.112 -0.337143 -0.0664446 0.939087
-6.23628 35.2005 70.5 -0.295416 -0.075249 0.951489
-5.25894 34.6916 70.7158 -0.250984 -0.0826387 0.964447
-4.90141 34.5789 70.7975 -0.237772 -0.0981756 0.96618
-5.26277 33.8663 70.6277 -0.229244 -0.11451 0.96661
-4.25862 33.5471 70.828 -0.220753 -0.116 0.968367
-3.18434 33.4521 71.022 -0.191416 -0.0930372 0.976997
-2.031 33.445 71.1907 -0.0833095 -0.0813729 0.993196
-0.793307 33.5374 71.3027 -0.0545711 -0.0801131 0.994848
0.288966 34.0295 71.367 -0.0129335 -0.0847099 0.996263
1.30147 34.5079 71.3887 0.0428764 -0.0741595 0.996299
2.28626 34.9825 71.378 0.0740781 -0.0627354 0.99486
3.77036 35.4798 71.2124 0.171232 -0.0663822 0.982759
5.08466 35.5296 70.9529 0.227805 -0.0693712 0.970705
6.0712 33.994 70.5556 0.255364 -0.0848455 0.963114
6.49061 33.0197 70.36 0.255063 -0.0841053 0.963259
7.08781 32.1181 70.1231 0.25264 -0.0657618 0.96514
7.88504 31.279 69.8193 0.316878 -0.0672139 0.946082
8.72283 30.681 69.4952 0.323571 -0.0608514 0.944201
10.2574 30.1144 68.8658 0.363578 -0.0510624 0.930163
11.2333 29.903 68.482 0.389569 -0.030906 0.919634
12.2931 29.9077 67.9848 0.426773 -0.0223603 0.904082
13.3228 30.5086 67.4995 0.448153 -0.0173162 0.89374
14.3616 31.0724 66.9817 0.461783 -0.0170944 0.886804
14.8594 32.1343 66.7392 0.470709 -0.0240066 0.881924
15.4734 33.1357 66.3769 0.490377 0.0318341 0.870898
15.6718 34.4839 66.2094 0.520789 0.0340673 0.852976
15.7662 35.8665 66.099 0.482827 0.0385186 0.874805
15.3232 37.1896 66.2647 0.520456 0.0738587 0.850313
14.7412 38.5614 66.5714 0.563126 0.0230249 0.82605
13.8502 40.1223 67.1362 0.558254 0.0176963 0.829482
13.1727 40.7853 67.5785 0.548095 0.0181503 0.836111
12.2489 41.4185 68.137 0.510201 -0.00502946 0.860039
11.1504 42.0823 68.8173 0.521283 -0.0173101 0.853199
9.69709 42.3969 69.5872 0.420951 -0.00428667 0.907073
8.80731 42.5424 70.0008 0.409914 0.00159911 0.912024
7.69378 42.8871 70.4516 0.313826 -0.0495393 0.948187
6.90134 43.784 70.7531 0.302542 -0.0349041 0.952461
6.30948 45.1902 71.0214 0.32542 -0.0285931 0.94437
5.90459 46.1642 71.1631 0.253798 -0.0242606 0.966953
5.01689 47.5318 71.4391 0.23481 -0.0300287 0.97138
4.14857 48.2806 71.6499 0.216068 -0.0162328 0.976217
3.02583 48.8174 71.8432 0.141636 0.0297133 0.98947
1.6943 49.0881 72.0248 0.144139 0.0257439 0.989222
0.603314 49.3642 72.1228 0.0290582 -0.0146895 0.999222
-0.544522 49.6581 72.1294 -0.0605199 -0.0128867 0.996098
-2.17166 48.9709 71.9294 -0.118762 0.00199261 0.99292
-3.187 48.6444 71.7781 -0.153205 0.00217847 0.988188
-4.27665 48.1612 71.5887 -0.216671 -0.0339391 0.974287
-5.02267 47.5325 71.3596 -0.270304 -0.0311715 0.962256
-5.98327 47.12 71.0672 -0.284635 -0.0390744 0.957827
-7.29701 46.0273 70.6099 -0.322699 -0.0261802 0.946081
-8.08508 45.2395 70.2582 -0.402524 -0.0226411 0.915006
-8.64693 44.4071 69.9873 -0.392127 -0.0323031 0.919342
-9.26141 43.4799 69.6622 -0.441568 -0.0315519 0.896673
-9.58349 41.9849 69.455 -0.437503 -0.0288267 0.898755
-9.81039 40.6129 69.3147 -0.436514 -0.00401371 0.89968
-9.66924 39.3601 69.3742 -0.433805 -0.00615582 0.900986
-9.46219 38.282 69.4414 -0.436115 -0.0289572 0.899425
-9.09477 37.2754 69.5425 -0.387424 -0.056539 0.920152
-8.50887 36.3569 69.7351 -0.384719 -0.0513151 0.921604
-7.93727 35.514 69.9158 -0.33565 -0.0711908 0.939292
-6.99195 34.7726 70.1984 -0.335766 -0.0723059 0.939164
-6.07663 34.075 70.4534 -0.28222 -0.080842 0.955344
-5.94547 34.0085 70.4826 -0.240288 -0.0931586 0.965922
7.33651 38.6248 70.4545 0.268175 -0.0454513 0.962271
8.11448 37.9493 70.1105 0.367397 -0.0479656 0.928817
8.56872 37.0081 69.8871 0.361969 -0.0397633 0.931326
9.00673 36.074 69.6827 0.365729 -0.0323419 0.930159
9.56584 35.2713 69.4276 0.358523 -0.0495498 0.932203
10.2316 34.5482 69.1203 0.446008 -0.0282126 0.894584
11.5905 34.5201 68.4387 0.44852 -0.0261002 0.89339
11.9511 35.6437 68.2912 0.452873 -0.027068 0.891164
11.5234 36.8047 68.5432 0.458188 -0.00972598 0.888624
10.7082 37.7599 68.9563 0.431904 -0.0121668 0.901837
9.87564 38.2683 69.3622 0.432502 -0.0161303 0.901481
8.6586 38.4488 69.9173 0.373774 -0.0428315 0.92653
7.36661 38.614 70.4454 0.361952 -0.0298395 0.931539
7.36375 38.6147 70.4465 0.311076 -0.027354 0.948991
9.39486 37.5313 69.5813 0.399287 -0.020698 0.91583
9.45856 36.4834 69.5193 0.365729 -0.0323419 0.930159
10.157 35.8052 69.1975 0.437992 -0.0206922 0.898659
10.8294 35.1396 68.8409 0.445543 -0.0288839 0.894794
10.8934 36.5563 68.8537 0.440899 -0.0181953 0.897272
10.3593 37.0197 69.1145 0.432261 -0.0086713 0.901707
10.0616 37.0782 69.2576 0.431876 -0.00881523 0.90189
