-1.99508 -41.0951 73.901 -0.186602 0.115426 0.975624
-1.12543 -40.6841 74.0178 -0.142142 0.0994659 0.983569
-0.499263 -41.6542 74.1732 -0.0437972 0.0908318 0.993335
-1.44984 -41.5907 74.0616 -0.148577 0.0999827 0.98303
-2.16247 -42.0547 73.9682 -0.196301 0.0784649 0.977194
-2.80976 -41.3133 73.756 -0.210222 0.103157 0.972193
-3.39719 -40.3055 73.5088 -0.252571 0.0610955 0.965582
-4.0383 -39.2818 73.2882 -0.242942 0.0711757 0.967092
-3.03221 -39.3967 73.522 -0.191622 0.0857292 0.977712
-1.84897 -39.7228 73.7741 -0.181729 0.0863581 0.979549
-0.892134 -40.1592 73.9984 -0.142142 0.0994659 0.983569
-0.0131991 -41.0839 74.1212 0.0266032 0.105921 0.993591
0.387504 -42.0404 74.2363 0.0136264 0.140463 0.989651
-0.218768 -42.9495 74.3225 -0.0315741 0.111358 0.993264
-1.72906 -42.4615 74.0779 -0.18683 0.0570908 0.980713
-2.21383 -42.9688 74.01 -0.199389 0.0524091 0.978518
-2.95556 -42.1907 73.8124 -0.214979 0.0748354 0.973549
-3.61537 -41.2413 73.5403 -0.276175 0.11767 0.953844
-4.25953 -40.2662 73.2819 -0.255463 0.0727187 0.964078
-5.04818 -38.8466 72.9293 -0.307837 0.106026 0.945506
-5.35718 -37.824 72.694 -0.343278 0.0892236 0.934617
-5.07856 -37.4704 72.7575 -0.303287 0.106672 0.94691
-4.20303 -37.8449 73.0899 -0.273953 0.120225 0.953467
-3.34795 -38.2938 73.3515 -0.217753 0.110978 0.969548
-1.73636 -39.0293 73.7338 -0.181778 0.0865361 0.979524
-0.755774 -39.5067 73.9485 -0.0706116 0.105906 0.987796
0.216528 -40.3146 74.0093 0.0294111 0.117575 0.992411
0.81888 -41.1285 74.0908 0.0417949 0.134782 0.989982
1.24819 -42.577 74.2798 0.0698458 0.141311 0.986979
0.876569 -43.5342 74.3978 0.0129843 0.107389 0.994132
-0.214327 -43.7273 74.4137 -0.0242813 0.110799 0.993518
-1.21505 -43.5449 74.2465 -0.189039 0.0759586 0.978999
-1.94843 -43.1895 74.0761 -0.201351 0.0533158 0.978065
-2.23075 -43.8687 74.0518 -0.234168 0.0696482 0.968779
-1.11924 -44.3473 74.3316 -0.1965 0.0833809 0.976946
0.0147176 -44.5692 74.4839 -0.024663 0.0642404 0.99763
1.16879 -44.3406 74.4801 0.0665189 0.103027 0.991003
1.96819 -43.4336 74.2911 0.119569 0.101211 0.987653
2.03508 -42.3609 74.1678 0.10128 0.139135 0.98508
1.57515 -41.0643 74.0324 0.0906033 0.122272 0.988159
0.880677 -40.0207 73.963 0.026518 0.0989172 0.994742
0.147168 -39.3268 73.9129 0.0200463 0.100588 0.994723
-0.720143 -38.7217 73.8669 -0.0706116 0.105906 0.987796
-1.63705 -38.2792 73.6711 -0.161563 0.105297 0.981224
-3.15438 -37.5685 73.3163 -0.225957 0.0789864 0.970929
-4.06824 -37.1139 73.0382 -0.270272 0.0923713 0.958168
-4.96884 -36.7108 72.707 -0.303287 0.106672 0.94691
-6.60582 -36.2418 72.1247 -0.310208 0.106785 0.944652
-6.64119 -37.455 72.2074 -0.341415 0.0673657 0.937495
-6.04281 -38.5287 72.5156 -0.359474 0.106784 0.927023
-5.34504 -39.8156 72.9354 -0.36945 0.0917393 0.92448
-4.73762 -40.771 73.1933 -0.255463 0.0727187 0.964078
-3.7468 -42.2427 73.6327 -0.286806 0.116638 0.950849
-3.00595 -43.1974 73.8538 -0.230218 0.0338504 0.972545
-2.86851 -43.3477 73.891 -0.225299 0.0304059 0.973807
-3.45006 -43.7299 73.7662 -0.223046 0.0381723 0.974015
-4.19898 -42.7663 73.5573 -0.256705 0.0742732 0.962296
-4.77695 -41.907 73.2797 -0.29478 0.0964602 0.950506
-5.52296 -40.8811 72.9408 -0.32558 0.0719585 0.942467
-6.12764 -39.8382 72.6148 -0.381427 0.074215 0.921414
-6.64387 -38.9709 72.3322 -0.371364 0.0892401 0.923964
-7.29163 -37.8989 71.9516 -0.439081 0.0729035 0.895485
-7.72635 -36.8668 71.6569 -0.432359 0.0626088 0.899525
-7.06377 -35.4381 71.8735 -0.3767 0.089151 0.919865
-5.48796 -35.6792 72.4251 -0.304313 0.111912 0.945975
-4.20812 -36.2629 72.9001 -0.290632 0.114004 0.9499
-2.95583 -36.8744 73.3056 -0.227421 0.0782574 0.970645
-1.60714 -37.5046 73.6025 -0.148965 0.0800409 0.985592
-0.706194 -37.9298 73.7822 -0.0673882 0.106945 0.987946
0.238906 -38.5159 73.8244 0.0221947 0.106674 0.994046
1.22232 -39.3921 73.891 0.0558103 0.0999203 0.993006
1.86935 -40.1777 73.9157 0.0840053 0.10075 0.991359
2.47122 -41.2352 73.9749 0.0885626 0.106985 0.990307
2.86197 -42.893 74.1241 0.123297 0.102729 0.987038
2.51535 -44.1351 74.296 0.12295 0.0918497 0.988112
1.63044 -45.0071 74.4825 0.128393 0.0862004 0.987963
0.259429 -45.3625 74.5526 -0.0339031 0.0903999 0.995328
-1.47486 -45.0131 74.3245 -0.191207 0.0977311 0.976669
-2.76722 -44.3659 73.9709 -0.246388 0.109918 0.962918
-3.05191 -44.1701 73.8753 -0.234795 0.0781482 0.968155
-3.68904 -44.5419 73.7508 -0.234795 0.0781482 0.968155
-2.44873 -45.4254 74.1725 -0.219705 0.103136 0.969721
-1.18829 -45.8299 74.44 -0.172181 0.0449274 0.984037
-0.144725 -46.0489 74.5803 -0.070775 0.0453948 0.996459
1.11608 -46.0539 74.6451 0.0481443 0.0898383 0.991352
2.2766 -45.5103 74.4421 0.129037 0.0857994 0.987912
3.3794 -44.2955 74.156 0.231501 0.100082 0.967225
3.59943 -42.7065 73.9261 0.261614 0.0928061 0.9607
3.13625 -40.929 73.8726 0.252262 0.100783 0.962396
2.17117 -39.3943 73.8102 0.0876842 0.100965 0.991012
1.42266 -38.5836 73.7867 0.107548 0.105369 0.988394
0.640549 -37.9268 73.7611 0.0115205 0.0854282 0.996277
-0.3123 -37.3383 73.7198 -0.0107244 0.125507 0.991018
-1.52438 -36.7581 73.5468 -0.0729696 0.167603 0.983149
-2.52053 -36.3076 73.3632 -0.190513 0.0788276 0.977753
-3.60537 -35.7717 73.0126 -0.269839 0.12178 0.955157
-5.0007 -35.1058 72.5139 -0.3038 0.112345 0.946089
-6.48346 -34.6239 71.9734 -0.316149 0.116206 0.941548
-8.00755 -35.0442 71.392 -0.431793 0.0646322 0.899654
-8.61035 -36.7409 71.2232 -0.459836 0.059311 0.885526
-8.01402 -38.1005 71.613 -0.445972 0.0639556 0.892696
-7.38685 -39.0863 71.9887 -0.454159 0.0629557 0.888623
-6.85453 -39.9983 72.3254 -0.382891 0.0743833 0.920794
-6.19423 -41.1065 72.6915 -0.383167 0.0768854 0.920472
-5.57059 -41.9903 73.0248 -0.386958 0.0821809 0.918404
-4.91824 -42.8814 73.3526 -0.289648 0.0843181 0.953004
-4.32284 -43.7489 73.5673 -0.224472 0.0426417 0.973537
-3.8442 -44.3703 73.7083 -0.221513 0.0460189 0.97406
-4.46572 -44.7106 73.5905 -0.211261 0.07049 0.974837
-5.31995 -43.5095 73.2757 -0.333011 0.0764473 0.937836
-5.90942 -42.6828 72.9454 -0.391248 0.0875016 0.916116
-6.54733 -41.861 72.6064 -0.385693 0.0766128 0.91944
-7.07299 -41.0272 72.3085 -0.465831 0.057384 0.882881
-7.86438 -39.64 71.7859 -0.46038 0.0711507 0.884866
-8.46739 -38.7209 71.4217 -0.45041 0.0540842 0.891182
-9.10987 -37.5306 70.9957 -0.486137 0.0544234 0.872185
-9.32983 -36.499 70.8075 -0.485618 0.0548028 0.872451
-8.90485 -34.9807 70.9766 -0.451856 0.035198 0.89043
-8.15877 -34.2224 71.275 -0.414541 0.0653546 0.907574
-6.81321 -33.8253 71.7766 -0.320349 0.0754689 0.94426
-5.83856 -33.9961 72.1112 -0.312284 0.0948565 0.945086
-4.90582 -34.3421 72.4537 -0.304066 0.111662 0.946084
-3.27818 -35.1288 73.0381 -0.274679 0.098544 0.956465
-2.35816 -35.6025 73.3111 -0.119784 0.119093 0.983763
-0.86874 -36.292 73.5165 -0.0831694 0.154495 0.984362
0.224489 -36.8229 73.6489 -0.0319996 0.163756 0.98598
1.17242 -37.435 73.7136 0.0625969 0.0865008 0.992889
2.07128 -38.2167 73.677 0.107548 0.105369 0.988394
3.11092 -39.4426 73.7224 0.144458 0.113495 0.981996
3.75271 -40.516 73.668 0.252107 0.100628 0.962453
4.06713 -41.4958 73.688 0.252262 0.100783 0.962396
4.3123 -42.4673 73.7107 0.258859 0.0866251 0.962022
4.30992 -43.919 73.8671 0.249034 0.124464 0.960463
3.71023 -45.1569 74.1504 0.215053 0.0761808 0.973627
2.87247 -46.0019 74.3986 0.207241 0.0338459 0.977407
1.98216 -46.5827 74.5549 0.156917 0.0207245 0.987394
0.379313 -46.867 74.6552 -0.0691074 0.0472048 0.996491
-0.626677 -46.7261 74.579 -0.121318 0.0470969 0.990053
-1.97262 -46.3488 74.3242 -0.154449 0.0720501 0.984749
-3.31408 -45.8191 73.9931 -0.253413 0.0869084 0.963257
-4.17171 -45.0785 73.6847 -0.23257 0.0944067 0.967641
-4.6904 -45.5588 73.5928 -0.31349 0.0537885 0.947758
-4.0018 -46.2862 73.8403 -0.261347 0.0669807 0.962918
-2.39947 -46.9839 74.3309 -0.200885 0.0891306 0.97318
-0.83606 -47.4177 74.5899 -0.136852 0.104001 0.985112
0.28843 -47.6455 74.6895 -0.0679116 0.052294 0.996319
2.02158 -47.3789 74.5698 0.182596 0.0530818 0.981752
3.13387 -46.7401 74.3606 0.189999 0.0198112 0.98158
4.04144 -45.9633 74.1267 0.225989 0.0503999 0.972825
4.6883 -45.1573 73.912 0.35602 0.0688929 0.931056
5.02878 -44.0293 73.6627 0.33392 0.106523 0.936543
5.03968 -42.4748 73.5031 0.300701 0.0816273 0.950214
4.70938 -41.1008 73.4801 0.258861 0.0853338 0.961976
4.37501 -40.1115 73.4889 0.225214 0.0464866 0.973197
3.81168 -39.1868 73.5587 0.186828 0.108534 0.976377
3.13098 -38.3445 73.5881 0.137041 0.125392 0.981792
2.16298 -37.3389 73.5885 0.116946 0.0873744 0.989287
1.20902 -36.5731 73.6312 0.0994311 0.0944674 0.990376
-0.0354504 -35.9163 73.5104 -0.0518727 0.0976528 0.993083
-1.258 -35.3245 73.364 -0.0782805 0.0851576 0.993286
-2.86025 -34.5403 73.0611 -0.172312 0.150841 0.973425
-3.79821 -34.0954 72.7759 -0.287877 0.109615 0.95129
-4.87401 -33.5391 72.3779 -0.300588 0.0838897 0.950058
-6.24566 -33.099 71.9041 -0.305909 0.0811334 0.948582
-7.30375 -33.0463 71.5325 -0.39201 0.102848 0.914194
-8.48401 -33.5486 71.0655 -0.418441 0.0797276 0.904738
-9.54447 -34.6652 70.6083 -0.485335 0.0408613 0.87325
-9.918 -35.7832 70.4426 -0.482048 0.0490129 0.874772
-10.0084 -36.8969 70.4549 -0.483795 0.0521751 0.873615
-9.54218 -38.2726 70.799 -0.487726 0.0553655 0.871235
-8.78293 -39.4832 71.3065 -0.47009 0.0554689 0.880607
-8.20405 -40.4296 71.6724 -0.466508 0.057874 0.882502
-7.55305 -41.5456 72.077 -0.480257 0.05711 0.875106
-6.96814 -42.4525 72.4793 -0.437808 0.0740005 0.894181
-6.11397 -43.5685 72.9427 -0.395312 0.0855847 0.914549
-5.22635 -44.8572 73.3886 -0.325909 0.0399613 0.944546
-5.10766 -45.0388 73.4362 -0.32147 0.032905 0.946337
-5.5629 -45.5806 73.2975 -0.346583 0.0431174 0.936695
-4.83883 -46.4778 73.6103 -0.286147 0.0598318 0.956315
-3.74387 -47.3078 73.9802 -0.265464 0.0690227 0.961631
-2.82317 -47.6227 74.2619 -0.267607 0.0724047 0.960803
-1.6812 -47.9246 74.523 -0.144366 0.0977045 0.984666
-0.703232 -48.2399 74.6978 -0.139371 0.105317 0.984622
0.328747 -48.4198 74.7617 -0.0157698 0.115491 0.993153
1.9659 -48.1521 74.6222 0.185667 0.0547234 0.981086
3.09624 -47.7471 74.3915 0.193199 0.0346511 0.980542
3.88325 -47.0678 74.2206 0.210289 0.0354609 0.976748
5.08018 -45.9587 73.7812 0.368147 0.0269523 0.929377
5.56613 -44.9705 73.5524 0.378534 0.0315165 0.92505
5.78475 -43.7269 73.3583 0.339541 0.0831792 0.936725
5.80218 -42.7235 73.283 0.313673 0.0682503 0.946935
5.56338 -41.6257 73.2681 0.301024 0.0756648 0.95061
5.32014 -40.5783 73.2715 0.288803 0.0526405 0.955914
4.97071 -39.6357 73.3187 0.2832 0.0568789 0.957373
4.10047 -38.4389 73.4218 0.189869 0.106369 0.976021
3.28697 -37.4731 73.4625 0.147747 0.0817659 0.985631
2.56558 -36.7265 73.4907 0.113402 0.0809105 0.990249
1.55178 -35.9712 73.5338 0.0893917 0.111648 0.989717
0.0680547 -35.2033 73.4713 -0.0908582 0.0636311 0.993814
-0.840732 -34.7585 73.3561 -0.0922048 0.070023 0.993273
-2.39137 -33.9911 73.0589 -0.172839 0.144608 0.974251
-3.35569 -33.5011 72.8149 -0.165287 0.120931 0.978581
-4.41848 -32.957 72.4707 -0.297584 0.0829535 0.951079
-5.62277 -32.4862 72.0475 -0.301601 0.0842115 0.949708
-6.81184 -32.2653 71.6496 -0.30817 0.0800335 0.947929
-7.74089 -32.3352 71.2658 -0.390671 0.0948268 0.915633
-8.67115 -32.7142 70.9059 -0.406464 0.0912847 0.908929
-9.82036 -33.7229 70.4025 -0.475337 0.0720813 0.876569
-10.481 -35.1889 70.0986 -0.533769 0.037782 0.843858
-10.6819 -36.438 70.0085 -0.56581 0.0317632 0.823924
-10.3788 -38.0536 70.2868 -0.560956 0.0377166 0.826986
-9.78216 -39.2061 70.713 -0.524116 0.0260463 0.851243
-9.20479 -40.0783 71.0931 -0.524816 0.0297368 0.850674
-8.5517 -41.1696 71.5235 -0.471799 0.0441707 0.880599
-7.79702 -42.4024 72.009 -0.487881 0.0701034 0.87009
-7.11006 -43.3618 72.4736 -0.497244 0.0573359 0.865564
-6.39213 -44.3061 72.89 -0.394256 0.0827907 0.915262
-5.86464 -45.1411 73.18 -0.327613 0.0305472 0.944299
-6.51699 -45.2924 72.8728 -0.450911 0.0438229 0.891303
-7.25851 -44.2583 72.4427 -0.489588 0.0480444 0.870294
-7.86774 -43.4599 72.0345 -0.505257 0.0437572 0.861859
-8.58554 -42.4129 71.5661 -0.515311 0.0383704 0.85603
-9.36251 -41.0658 71.036 -0.521648 0.0333436 0.852509
-9.99779 -40.1391 70.6064 -0.524294 0.0358619 0.850782
-10.5628 -39.2483 70.2252 -0.561297 0.0489391 0.826165
-11.1171 -37.9072 69.7791 -0.563474 0.0406826 0.825123
-11.3268 -36.6774 69.5748 -0.565217 0.0346064 0.824211
-11.2079 -35.4811 69.61 -0.566419 0.0323732 0.823482
-10.8207 -34.1044 69.824 -0.566244 0.0321217 0.82361
-10.0433 -32.9434 70.2006 -0.466138 0.0688315 0.881706
-9.16044 -32.1438 70.6203 -0.438208 0.0737009 0.895048
-7.48701 -31.5343 71.2912 -0.390671 0.0948268 0.915633
-6.26082 -31.5714 71.753 -0.303984 0.102804 0.947114
-5.04037 -31.8849 72.1784 -0.285362 0.117373 0.950918
-3.72815 -32.5094 72.6164 -0.262612 0.114919 0.958032
-2.663 -33.0341 72.8742 -0.165287 0.120931 0.978581
-1.61281 -33.588 73.1413 -0.148126 0.145905 0.977753
-0.575733 -34.1304 73.3225 -0.0815855 0.11196 0.990358
0.478671 -34.6359 73.4642 -0.0107186 0.127866 0.989159
1.56491 -35.2003 73.444 0.0881675 0.116086 0.989313
2.82429 -35.9766 73.3985 0.137546 0.090605 0.986062
3.54318 -36.7303 73.3554 0.163633 0.0964014 0.981795
4.4066 -37.733 73.2746 0.207869 0.115491 0.971299
5.49677 -39.0176 73.1263 0.283585 0.0631979 0.956862
5.91199 -39.9899 73.0587 0.300622 0.0467466 0.952591
6.16135 -41.141 73.0406 0.303866 0.0483584 0.95148
6.48153 -42.0946 73.0146 0.327294 0.0429887 0.942929
6.53808 -43.2192 73.06 0.326147 0.0608765 0.943339
6.37929 -44.3717 73.193 0.415979 0.0428808 0.90822
6.14927 -45.4118 73.3282 0.384425 0.030291 0.922659
5.75581 -46.3755 73.5215 0.375653 0.0281851 0.926326
5.04833 -47.0715 73.8312 0.341546 0.0770221 0.936687
4.08841 -47.8883 74.2009 0.236428 0.0189906 0.970357
3.08869 -48.5954 74.423 0.193199 0.0346511 0.980542
1.69274 -48.9231 74.7107 0.189263 0.0365253 0.981227
0.61575 -49.1358 74.8208 0.0309463 0.0190983 0.999335
-0.492544 -49.1296 74.8237 -0.0830605 0.110145 0.988671
-1.50623 -48.7655 74.6375 -0.156236 0.0906955 0.983436
-3.01397 -48.3155 74.2538 -0.275322 0.0547794 0.95979
-3.9239 -48.0015 73.9747 -0.301422 0.0486437 0.951844
-4.85169 -47.4846 73.664 -0.297958 0.00932706 0.954532
-5.81476 -46.3558 73.25 -0.362527 0.0627277 0.929858
-6.15912 -45.8738 73.0965 -0.393068 0.0432761 0.915757
-6.8225 -46.36 72.7849 -0.461684 0.0623863 0.884821
-7.27674 -45.4786 72.4862 -0.475381 0.0506588 0.878222
-7.80579 -44.6226 72.143 -0.508832 0.058321 0.858887
-8.68254 -43.4831 71.5559 -0.519769 0.0403371 0.853259
-9.20215 -42.6875 71.1961 -0.523449 0.0304466 0.851513
-9.71315 -41.7861 70.8497 -0.522923 0.0320603 0.851775
-10.3601 -40.814 70.4116 -0.524446 0.0360099 0.850682
-10.9409 -40.0174 70.0096 -0.60049 0.0416032 0.798257
-11.6396 -38.4988 69.4417 -0.607517 0.0266198 0.793832
-11.9449 -37.3587 69.1658 -0.613018 0.0275388 0.789589
-11.8948 -35.893 69.1538 -0.561991 0.0329851 0.826468
-11.6842 -34.6221 69.2488 -0.566645 0.0314822 0.82336
-11.1854 -32.9432 69.5457 -0.541226 0.0384604 0.839458
-10.248 -32.1192 70.0513 -0.491248 0.0622419 0.868008
-9.12322 -31.2668 70.5398 -0.413788 0.10088 0.904767
-8.19952 -30.8894 70.9178 -0.401821 0.0998973 0.910178
-7.27037 -30.8093 71.2836 -0.367191 0.122749 0.921991
-6.28775 -30.6116 71.6373 -0.330404 0.117195 0.936044
-5.09941 -31.105 72.0545 -0.267046 0.131533 0.954665
-4.15834 -31.4208 72.3613 -0.265649 0.13294 0.95486
-2.8105 -32.1706 72.7614 -0.155552 0.101264 0.982623
-1.90821 -32.5747 72.9453 -0.150349 0.145266 0.977546
-0.791459 -33.1685 73.1788 -0.118298 0.151077 0.981408
0.220252 -33.6737 73.3364 -0.0157962 0.129174 0.989179
1.28516 -34.2368 73.358 0.0625736 0.139319 0.988235
2.15597 -34.7267 73.3369 0.0895094 0.112076 0.98966
3.13038 -34.9684 73.2485 0.144841 0.113542 0.982676
3.90832 -36.1092 73.2323 0.166691 0.096384 0.981287
4.8941 -36.9515 73.0971 0.208959 0.0631794 0.97588
5.64148 -37.872 72.9959 0.30388 0.0672329 0.949804
6.48518 -38.9907 72.8126 0.411012 0.0721292 0.907384
6.6465 -40.0426 72.8295 0.300622 0.0467466 0.952591
7.06361 -41.3229 72.7722 0.350797 0.0624985 0.932584
7.43214 -42.355 72.6376 0.4259 0.0287555 0.904311
7.30167 -43.4922 72.7335 0.426109 0.0289141 0.904207
6.95406 -45.0055 72.9745 0.408493 0.0567781 0.910991
6.68403 -46.055 73.1256 0.383278 0.0333809 0.923019
5.71855 -47.4999 73.6176 0.374196 0.071192 0.924141
5.01617 -48.1504 73.9316 0.322115 0.0518062 0.944571
4.12749 -48.9187 74.2236 0.244427 0.0422731 0.967507
3.20524 -49.4677 74.4352 0.197417 0.0420126 0.979412
2.20726 -49.6801 74.6377 0.187179 0.0317786 0.981811
0.477722 -49.9741 74.8392 0.0304665 0.0198714 0.999336
-1.05744 -49.7763 74.7837 -0.148515 0.0440802 0.987496
-2.0577 -49.3784 74.5941 -0.22149 0.068874 0.970921
-3.0909 -49.1365 74.2788 -0.276972 0.0577757 0.959137
-4.07362 -48.846 73.962 -0.32675 0.0444117 0.944067
-5.18344 -48.1284 73.5662 -0.299454 0.00832083 0.954074
-5.95607 -47.4825 73.2535 -0.409013 0.0188944 0.912281
-6.13763 -47.2504 73.1642 -0.416766 0.0282295 0.908564
-6.58978 -46.7881 72.9401 -0.439419 0.0509781 0.896283
