-2.37206 -41.6825 75.2933 -0.14244 0.118948 0.982629
-1.3635 -41.5447 75.4219 -0.109357 0.0982422 0.988356
-0.970893 -42.5052 75.5215 -0.0778368 0.0688187 0.994588
-1.8012 -42.1274 75.4294 -0.110966 0.0931709 0.988622
-2.27055 -42.7561 75.4064 -0.220352 0.0361892 0.974711
-0.608189 -43.4971 75.6683 -0.0769394 0.127764 0.988804
0.398587 -43.421 75.7044 -0.00610661 0.128673 0.990814
0.395206 -42.0246 75.56 -0.00404534 0.0762458 0.996375
-0.838947 -41.0916 75.4228 -0.0432331 0.0916329 0.994845
-1.76047 -40.6589 75.2535 -0.140493 0.129212 0.981613
-3.0011 -40.137 74.9886 -0.216908 0.140303 0.964551
-3.93431 -40.451 74.7648 -0.28097 0.139227 0.949549
-3.3206 -41.2999 75.0645 -0.235737 0.118339 0.96383
-2.52814 -42.4905 75.3416 -0.20995 0.0585962 0.975562
-3.30223 -42.7373 75.1785 -0.217814 0.0289124 0.975562
-1.94424 -43.8327 75.5358 -0.217917 0.0538731 0.974437
-0.184952 -44.3 75.7799 -0.0492722 0.109807 0.992687
0.81963 -44.1958 75.8097 -0.00685369 0.132294 0.99042
1.78519 -43.7699 75.7107 0.141208 0.092065 0.98569
1.91156 -42.6272 75.5425 0.0327845 0.103868 0.992998
0.941095 -41.3863 75.4865 0.0458595 0.0979482 0.994118
-0.358516 -40.5357 75.3951 -0.0424901 0.0877495 0.995235
-1.31531 -40.0653 75.2379 -0.117047 0.124925 0.985229
-2.36155 -39.56 75.0078 -0.173175 0.149059 0.97352
-3.53766 -39.0383 74.6792 -0.271124 0.131618 0.953473
-4.45647 -38.7682 74.3864 -0.271449 0.126605 0.954087
-5.25771 -38.2117 74.0825 -0.342562 0.0876001 0.934324
-5.48681 -38.8617 74.042 -0.383114 0.0826089 0.919986
-4.80459 -40.2505 74.4598 -0.388502 0.0901285 0.91702
-4.29261 -41.2151 74.7753 -0.276336 0.141601 0.950562
-3.57127 -42.3591 75.1073 -0.213676 0.0580896 0.974727
-4.23141 -42.6336 74.9597 -0.310873 0.0623027 0.944402
-3.38488 -43.6979 75.1886 -0.229291 0.0227112 0.973004
-2.59036 -44.3074 75.4103 -0.24131 0.0626882 0.968349
-1.35041 -44.8546 75.7285 -0.165596 0.0590777 0.983165
0.0872695 -45.0655 75.8607 -0.0543635 0.0780685 0.995461
1.1675 -44.9384 75.9078 0.0450902 0.0875206 0.989688
2.29394 -44.4931 75.7053 0.141208 0.092065 0.98569
2.81279 -43.4605 75.5341 0.189948 0.122349 0.972413
2.61614 -42.2474 75.42 0.215855 0.0956443 0.971413
1.92436 -41.2565 75.4097 0.0834795 0.106245 0.990826
0.816662 -40.3441 75.3832 0.0626372 0.117197 0.991125
-0.545669 -39.6118 75.2705 -0.0926638 0.12626 0.987423
-1.58525 -39.0894 75.0845 -0.15127 0.107979 0.981907
-2.80422 -38.5477 74.7869 -0.179239 0.106224 0.97785
-3.94466 -38.0445 74.4505 -0.270939 0.0945907 0.957938
-5.08223 -37.5267 74.0601 -0.304734 0.111687 0.945863
-6.33731 -37.0849 73.5552 -0.405998 0.0835197 0.909483
-6.99273 -37.4755 73.2819 -0.434576 0.0966246 0.895437
-6.3827 -39.0999 73.694 -0.379853 0.0800383 0.921578
-5.78096 -40.0793 74.0287 -0.393937 0.0797584 0.915608
-5.18358 -41.0618 74.3829 -0.392227 0.0976566 0.914649
-4.47953 -42.2369 74.8107 -0.38242 0.0989303 0.918645
-5.11898 -42.517 74.573 -0.395463 0.10377 0.912594
-4.23932 -43.8223 74.9789 -0.240578 0.0164309 0.970491
-3.34568 -44.7749 75.2613 -0.242446 0.07445 0.967284
-1.87962 -45.4547 75.6646 -0.201366 0.102788 0.973953
-0.597177 -45.8006 75.8764 -0.0926676 0.0697538 0.99265
0.601848 -45.7828 75.9496 -0.0602091 0.0867097 0.99441
1.93627 -45.6118 75.8505 0.14582 0.0830359 0.985809
3.23988 -44.6927 75.5838 0.147205 0.0865332 0.985309
3.6545 -43.5938 75.3506 0.231895 0.155799 0.960182
3.55519 -42.4968 75.2141 0.234737 0.0778704 0.968935
3.07518 -41.5053 75.2398 0.201182 0.113734 0.972926
2.16809 -40.3975 75.2958 0.190555 0.0943751 0.976902
1.19273 -39.6978 75.2889 0.0583676 0.0973028 0.993542
0.299921 -39.182 75.2763 -0.0193268 0.128112 0.990134
-1.00125 -38.5278 75.1024 -0.0891953 0.10945 0.989381
-1.97532 -38.0523 74.8917 -0.177801 0.0856919 0.980328
-3.11962 -37.5854 74.6171 -0.235924 0.113748 0.965091
-4.32481 -37.0353 74.2437 -0.287005 0.104601 0.951988
-5.86851 -36.3532 73.6581 -0.303355 0.137622 0.942887
-7.32924 -35.9681 72.9762 -0.436526 0.0665382 0.897228
-7.89542 -36.9416 72.786 -0.443221 0.0895589 0.891846
-7.69206 -37.9128 72.9791 -0.452236 0.0817286 0.888146
-7.23886 -39.0045 73.3181 -0.425133 0.0800692 0.900963
-6.71169 -39.9317 73.6182 -0.39552 0.0700736 0.915777
-6.14196 -40.8808 73.9522 -0.394517 0.0903932 0.914432
-5.60902 -41.7396 74.2708 -0.396666 0.0976425 0.912748
-5.39222 -42.0924 74.4043 -0.398742 0.102632 0.911297
-6.05237 -42.3658 74.1447 -0.40286 0.102228 0.909533
-6.85195 -41.0617 73.6591 -0.400509 0.0870188 0.91215
-7.36693 -40.2042 73.3521 -0.401063 0.0772024 0.912749
-7.86102 -39.3397 73.0354 -0.452781 0.0923482 0.886826
-8.50707 -37.7536 72.5497 -0.453325 0.0817098 0.887592
-8.6961 -36.7604 72.3625 -0.445859 0.0650256 0.892558
-8.33756 -35.5834 72.464 -0.433146 0.0608106 0.899268
-7.01426 -35.139 73.0631 -0.430385 0.0686467 0.899996
-5.52395 -35.6674 73.6689 -0.303604 0.13774 0.94279
-4.65838 -36.0754 74.0064 -0.302177 0.136527 0.943424
-3.21359 -36.7255 74.4928 -0.236362 0.102562 0.966173
-1.76447 -37.3431 74.868 -0.13603 0.115287 0.982672
-0.247311 -38.0725 75.0893 -0.0595207 0.128238 0.989954
1.06368 -38.7435 75.1939 0.0355434 0.126007 0.991389
2.0352 -39.3228 75.2026 0.108544 0.101344 0.98763
2.94377 -40.0876 75.1277 0.183411 0.0753012 0.980147
3.69648 -41.0551 75.0569 0.195589 0.0924418 0.976043
4.33193 -42.3379 75.0128 0.235921 0.0782503 0.968616
4.4464 -43.4767 75.1241 0.268376 0.135639 0.953613
4.1341 -44.8547 75.3817 0.327722 0.0672381 0.941611
3.48537 -45.6881 75.6086 0.20743 0.0462361 0.977156
2.59065 -46.2531 75.8064 0.147707 0.0822449 0.985577
1.55012 -46.4604 75.984 0.147633 0.0866585 0.985237
0.345127 -46.5703 76.0008 -0.061518 0.0846081 0.994513
-1.19904 -46.4281 75.8461 -0.121057 0.0692047 0.990223
-2.69778 -45.9368 75.5301 -0.25392 0.0687656 0.964778
-4.15748 -45.1261 75.0831 -0.245925 0.0798451 0.965993
-4.82617 -44.2399 74.8405 -0.243574 0.0474662 0.968215
-5.39471 -43.3837 74.5526 -0.397392 0.104749 0.91163
-5.62576 -43.0248 74.4094 -0.404069 0.103709 0.90883
-6.29196 -43.3006 74.1449 -0.403978 0.104009 0.908836
-5.50718 -44.5234 74.6118 -0.417712 0.0520896 0.907063
-4.95546 -45.4371 74.8669 -0.285655 0.0411544 0.957447
-4.09757 -46.1566 75.1539 -0.286185 0.0550312 0.956493
-2.97373 -46.6373 75.5065 -0.256391 0.0660054 0.964317
-1.973 -46.9917 75.7927 -0.18923 0.0723443 0.977128
-0.777733 -47.2507 75.956 -0.103101 0.0652429 0.992413
1.00659 -47.2988 76.1036 -0.0683284 0.0773745 0.994609
2.13812 -47.1865 75.9451 0.173244 0.0499314 0.98361
3.56384 -46.6516 75.6388 0.208273 0.0584421 0.976323
4.52276 -45.8079 75.3422 0.345451 0.102009 0.93287
5.0624 -44.5183 75.063 0.313378 0.0321525 0.949084
5.23306 -43.1624 74.8813 0.233362 0.103589 0.966845
4.9407 -41.6431 74.8074 0.235227 0.0764648 0.968924
4.40519 -40.7609 74.8745 0.230685 0.0702022 0.970485
3.76397 -39.8501 74.956 0.206021 0.0737562 0.975487
2.87704 -38.9718 75.0292 0.16139 0.103476 0.981449
1.98411 -38.3978 75.112 0.163164 0.116318 0.979718
1.04791 -37.8835 75.0863 0.0320369 0.117972 0.992496
0.11034 -37.4101 75.0186 -0.0357654 0.126863 0.991094
-1.07505 -36.8301 74.8583 -0.0917499 0.144428 0.985252
-2.14917 -36.3851 74.7071 -0.142594 0.100233 0.982852
-3.10261 -35.9696 74.4479 -0.234376 0.102383 0.966685
-4.188 -35.4725 74.0701 -0.301921 0.135495 0.943651
-5.1887 -34.9934 73.6781 -0.304245 0.127575 0.943955
-6.45526 -34.4446 73.2014 -0.312575 0.123222 0.941808
-7.8698 -34.3135 72.5906 -0.425005 0.0869434 0.901004
-8.99773 -35.1108 72.1129 -0.434614 0.0602764 0.898597
-9.47414 -36.2262 71.9512 -0.440598 0.0481121 0.896414
-9.29532 -37.6308 72.1354 -0.468987 0.0826239 0.879149
-8.96092 -38.6082 72.3801 -0.505939 0.0582964 0.860148
-8.37445 -39.8436 72.8126 -0.474885 0.0761222 0.876749
-7.62302 -41.1099 73.3017 -0.444615 0.0576677 0.893859
-6.95997 -42.2664 73.7293 -0.425389 0.107985 0.898301
-6.53693 -42.9211 73.9926 -0.405352 0.105951 0.907997
-7.1009 -43.3647 73.7925 -0.433506 0.104601 0.894564
-7.72951 -42.2889 73.3419 -0.457316 0.0990177 0.88377
-8.22044 -41.4262 73.0254 -0.45925 0.0654917 0.885739
-8.84453 -40.4244 72.5963 -0.499259 0.0693672 0.863595
-9.30651 -39.5605 72.2669 -0.513894 0.0712531 0.854848
-9.93656 -38.0063 71.7913 -0.504509 0.0425857 0.862274
-10.1705 -37.0463 71.5926 -0.543734 0.0370817 0.838412
-10.1514 -35.8038 71.552 -0.545293 0.0346084 0.837501
-9.67739 -34.7271 71.7672 -0.427019 0.0508896 0.902805
-8.98885 -33.9939 72.0491 -0.42108 0.0641623 0.904625
-8.16173 -33.5407 72.3891 -0.407771 0.0676669 0.910567
-6.77319 -33.5035 72.9647 -0.323079 0.128443 0.937609
-5.21025 -34.1492 73.5665 -0.30483 0.11596 0.945321
-4.01559 -34.7289 74.0253 -0.306933 0.117475 0.944453
-2.91496 -35.2878 74.4137 -0.249773 0.130776 0.959094
-1.89162 -35.6894 74.6729 -0.140341 0.105534 0.98285
-0.409161 -36.288 74.8482 -0.0766365 0.0848578 0.993407
1.01636 -37.0353 74.9799 -0.00826585 0.13939 0.990147
1.94336 -37.5117 75.0129 0.0980325 0.116359 0.986217
2.85409 -38.0353 74.9239 0.165951 0.115566 0.979336
3.71881 -38.6484 74.8474 0.19245 0.114568 0.974298
4.55205 -39.6535 74.7552 0.231146 0.0808578 0.969531
5.4255 -40.9558 74.6389 0.238039 0.0674306 0.968912
5.95611 -42.2182 74.5415 0.376575 0.0731623 0.92318
5.96249 -43.2163 74.64 0.388428 0.0923613 0.916838
5.74174 -44.7312 74.8198 0.392607 0.0254751 0.919338
5.42447 -45.8076 75.0021 0.39924 0.0408318 0.915937
4.74703 -46.7942 75.359 0.40799 0.0640631 0.910672
3.92383 -47.3932 75.6061 0.211019 0.0591066 0.97569
2.38763 -47.9283 75.9384 0.178604 0.0547415 0.982376
1.39958 -48.055 76.125 0.118277 0.0417993 0.990091
-0.137641 -48.0805 76.0816 -0.0821708 0.0916326 0.992366
-1.56339 -47.8495 75.925 -0.104795 0.104363 0.989002
-2.69803 -47.5337 75.6412 -0.257982 0.0765381 0.963036
-3.6287 -47.1913 75.3702 -0.275125 0.0661345 0.958949
-4.98227 -46.568 74.907 -0.294467 0.0531004 0.954071
-5.63386 -45.7976 74.6184 -0.416317 0.045073 0.908101
-6.09214 -44.933 74.366 -0.417712 0.0520896 0.907063
-7.06649 -43.4179 73.814 -0.413574 0.0810103 0.906514
-7.08427 -43.3903 73.803 -0.405352 0.105951 0.907997
-7.66289 -43.781 73.5015 -0.489723 0.0481235 0.870548
-8.51165 -42.2451 72.9351 -0.474194 0.0741876 0.876701
-9.38165 -40.8235 72.3045 -0.553142 0.0384939 0.832197
-9.90235 -39.8979 71.9263 -0.552156 0.0268811 0.833307
-10.3088 -38.8819 71.6043 -0.506958 0.0535235 0.859957
-10.7183 -37.888 71.2902 -0.541476 0.0550335 0.838911
-10.9223 -36.8811 71.0919 -0.545909 0.0447908 0.836573
-10.7347 -35.2494 71.1412 -0.552618 0.0392497 0.83251
-9.99822 -33.922 71.5703 -0.485321 0.0439874 0.870434
-9.2219 -33.2038 71.8831 -0.416395 0.0675708 0.906664
-8.26234 -32.7388 72.2754 -0.402847 0.0986599 0.909934
-7.20576 -32.6028 72.7199 -0.361446 0.0874023 0.92758
-5.56264 -33.1441 73.3344 -0.307524 0.0793561 0.947969
-4.66128 -33.5682 73.6731 -0.305639 0.115256 0.945146
-3.33392 -34.2508 74.1877 -0.255027 0.122684 0.957584
-1.78142 -34.9245 74.5999 -0.19506 0.126922 0.972524
-0.806631 -35.2854 74.7292 -0.0763441 0.0924198 0.992768
0.287875 -35.7661 74.8296 -0.00624987 0.0620569 0.998053
1.20519 -36.2793 74.8667 -0.00690474 0.106203 0.993324
2.57661 -37.0099 74.8463 0.161765 0.122124 0.979236
3.52087 -37.5235 74.7478 0.168576 0.117912 0.97861
4.53483 -38.3606 74.6317 0.229031 0.111677 0.966896
5.45676 -39.6557 74.5311 0.294713 0.094029 0.949194
6.11875 -40.6758 74.3707 0.354412 0.0718005 0.932328
6.6254 -41.618 74.2448 0.363019 0.0527098 0.93029
6.74548 -42.7608 74.2624 0.37614 0.0720592 0.923428
6.49432 -44.4447 74.4845 0.410411 0.0419776 0.910934
6.30569 -45.6282 74.6106 0.396086 0.0409999 0.917298
5.62202 -46.968 74.9791 0.408638 0.062026 0.910504
4.93609 -47.6997 75.3482 0.335076 0.0470156 0.937235
3.71469 -48.3626 75.6831 0.259517 0.0373811 0.964669
2.53079 -48.6926 75.9594 0.180517 0.0608039 0.981691
1.50492 -48.8404 76.1336 0.059294 0.0179295 0.998079
0.420016 -48.8888 76.1969 -0.010737 0.0533348 0.995719
-1.0238 -48.7135 76.0669 -0.0807052 0.0885915 0.992793
-2.32776 -48.4173 75.8191 -0.265787 0.0789304 0.960792
-3.39346 -48.0794 75.4933 -0.262695 0.0730447 0.962063
-4.55607 -47.6652 75.1125 -0.314855 0.0428204 0.948173
-5.74292 -46.9797 74.6296 -0.417127 0.0537903 0.907234
-6.40422 -45.8736 74.2691 -0.415252 0.0466577 0.908506
-6.98591 -44.8372 73.942 -0.457305 0.0522044 0.886932
-7.36093 -44.2434 73.6976 -0.490602 0.0480585 0.870057
-7.79192 -44.8421 73.4868 -0.491638 0.0469778 0.869531
-7.23383 -45.7664 73.8603 -0.478591 0.0531197 0.876349
-6.79544 -46.6933 74.1347 -0.415019 0.046724 0.90861
-6.20101 -47.6171 74.4602 -0.421234 0.0622267 0.904806
-5.0057 -48.3156 74.9926 -0.314329 0.0431669 0.948332
-3.87175 -48.715 75.3929 -0.305298 0.0509497 0.950769
-2.90227 -49.0287 75.6959 -0.278876 0.0493292 0.959059
-1.91583 -49.2711 75.9918 -0.256081 0.0353262 0.965713
-0.697469 -49.5311 76.1627 -0.0841329 0.0734823 0.993741
0.944653 -49.6759 76.1872 0.0604435 0.0517516 0.996825
1.93956 -49.5989 76.1217 0.119354 0.0379681 0.990056
3.47933 -49.2717 75.8004 0.205407 0.0412582 0.977751
4.92087 -48.6819 75.3691 0.261808 0.0352184 0.964285
5.83093 -47.9056 74.9617 0.409273 0.0688603 0.909792
6.43384 -47.0588 74.6214 0.410121 0.0769012 0.908777
6.94275 -46.0955 74.3512 0.422087 0.0324357 0.905975
7.20953 -44.2232 74.1486 0.449082 0.035252 0.892795
7.46211 -43.0183 73.9754 0.440518 0.0378999 0.896895
7.51255 -41.9244 73.895 0.434445 0.0469956 0.899467
7.18477 -40.9414 73.9857 0.357947 0.078896 0.930354
6.32533 -39.6596 74.2025 0.360867 0.0848456 0.928746
5.67953 -38.7066 74.3483 0.348703 0.0969695 0.932203
5.05251 -37.8168 74.4341 0.256631 0.10179 0.960992
3.80479 -36.7789 74.6157 0.181624 0.106473 0.97738
2.91388 -36.3316 74.7102 0.156729 0.115038 0.980916
1.94622 -35.8174 74.7893 0.123135 0.150308 0.9808
1.05359 -35.2979 74.8043 0.0457143 0.11408 0.990035
-0.267087 -34.6692 74.7105 -0.0712219 0.110501 0.991144
-1.48444 -34.2484 74.5562 -0.135558 0.134814 0.980225
-3.26817 -33.4926 74.0992 -0.185327 0.137952 0.972878
-4.21471 -32.9284 73.7448 -0.306756 0.104327 0.946053
-5.47471 -32.347 73.2868 -0.288323 0.08856 0.953429
-6.76911 -31.8684 72.8196 -0.357799 0.0889953 0.9288
-7.79514 -31.8398 72.3803 -0.391121 0.106877 0.914111
-9.06453 -32.2211 71.8631 -0.409335 0.100908 0.906756
-10.0114 -32.8591 71.4778 -0.473286 0.0838445 0.875649
-10.7625 -33.7403 71.0681 -0.546898 0.0276707 0.836711
-11.2411 -34.6205 70.7781 -0.554657 0.0280451 0.831602
-11.5276 -35.6974 70.6318 -0.563588 0.0373312 0.825212
-11.5806 -37.3259 70.6785 -0.559229 0.0491207 0.827556
-11.3433 -38.3147 70.8981 -0.559796 0.0492559 0.827165
-10.926 -39.1661 71.224 -0.563555 0.0289207 0.825558
-10.408 -40.4191 71.6082 -0.552734 0.0255542 0.832964
-9.68601 -41.5249 72.1345 -0.556359 0.0373346 0.830097
-9.13021 -42.3672 72.5419 -0.546622 0.0358061 0.836583
-8.70447 -43.2735 72.8806 -0.554307 0.05153 0.830642
-8.24241 -44.1453 73.1941 -0.492325 0.0470552 0.869138
-8.61054 -44.8994 73.0364 -0.512053 0.0634576 0.855966
-7.96797 -45.877 73.4615 -0.480909 0.0642712 0.87441
-7.38528 -47.033 73.8437 -0.472033 0.0471691 0.880317
-7.01308 -47.9883 74.0977 -0.45087 0.04849 0.891163
-5.92046 -48.7391 74.6637 -0.423388 0.0500826 0.904492
-4.86487 -49.2018 75.0882 -0.319523 0.0577047 0.945819
-3.46631 -49.8076 75.5678 -0.292066 0.0448324 0.955347
-2.5156 -50.0019 75.8583 -0.260211 0.0336161 0.964646
-1.52559 -50.2232 76.107 -0.235731 0.0165414 0.971669
-0.337601 -50.4353 76.2431 -0.0118085 0.0263178 0.999582
1.31567 -50.5188 76.2066 0.0846551 0.0396628 0.995294
2.45371 -50.3062 76.0508 0.186156 0.0398289 0.981703
3.50886 -50.0279 75.8201 0.213799 0.0412399 0.975977
4.7161 -49.8213 75.4854 0.290492 0.0563167 0.955069
6.00984 -48.8416 74.9585 0.396225 0.0587623 0.916148
6.69447 -47.9348 74.5774 0.407444 0.0758294 0.910076
7.39056 -47.011 74.1817 0.413482 0.0761429 0.907321
7.83798 -46.0917 73.9339 0.431717 0.0435506 0.900817
7.83976 -44.8298 73.8555 0.445273 0.0449604 0.894201
7.96866 -43.843 73.7515 0.449125 0.0358646 0.892749
8.31294 -42.9225 73.5506 0.443075 0.0291854 0.896009
8.25347 -41.7271 73.5257 0.44634 0.0570724 0.892897
7.89678 -40.6547 73.6195 0.443438 0.0782452 0.892857
7.35381 -39.8006 73.8046 0.439991 0.0984804 0.892547
6.31065 -38.4014 74.0804 0.34969 0.0965751 0.931874
5.93082 -37.4489 74.1254 0.343142 0.097365 0.934213
4.71289 -36.4379 74.3936 0.243366 0.101339 0.963545
3.88783 -35.8685 74.5003 0.176838 0.108456 0.978017
3.00378 -35.3558 74.5696 0.142975 0.147034 0.978739
1.30046 -34.5752 74.6637 0.102493 0.156538 0.982331
-0.180102 -33.9723 74.6263 -0.0558366 0.147974 0.987053
-1.30758 -33.4689 74.4707 -0.131922 0.139263 0.979936
-2.51285 -33.0765 74.1873 -0.184866 0.125296 0.974742
-3.42297 -32.5658 73.9242 -0.243994 0.139061 0.959716
-4.27588 -32.0541 73.6313 -0.282687 0.115952 0.95172
-5.35318 -31.545 73.2492 -0.288247 0.088499 0.953458
-6.3048 -31.0812 72.9095 -0.315241 0.121259 0.940688
-7.36682 -30.9585 72.4614 -0.388696 0.102324 0.915666
-8.48467 -31.0614 71.9942 -0.393557 0.100987 0.913735
-9.41049 -31.5315 71.6267 -0.412449 0.0906365 0.906457
-10.3088 -32.0652 71.2315 -0.4823 0.0926604 0.870303
-11.1003 -32.886 70.8198 -0.536237 0.0492438 0.842003
-11.5645 -33.7679 70.5365 -0.563814 0.0234629 0.825468
-12.0788 -35.1542 70.2286 -0.567536 0.0433971 0.822204
-12.2919 -36.3546 70.1412 -0.560265 0.043307 0.827164
-12.1814 -38.0399 70.3145 -0.559505 0.0488692 0.827385
-11.5127 -39.5473 70.8365 -0.564956 0.032994 0.824461
-11.024 -40.8985 71.2105 -0.557994 0.0291318 0.82932
-10.4694 -41.7598 71.617 -0.556496 0.0329287 0.830198
-9.94599 -42.5368 72 -0.558641 0.0378545 0.82853
-9.39349 -43.2751 72.413 -0.565114 0.0478307 0.823607
-9.1352 -43.8997 72.6257 -0.555969 0.0438833 0.830004
-9.03132 -44.0948 72.7033 -0.54583 0.0513911 0.836192
