-1.99246 -42.7099 79.5673 -0.197994 0.138793 0.970326
-0.410367 -43.1206 79.8778 -0.103419 0.0864744 0.990715
0.705797 -42.7669 79.8943 0.101635 0.10575 0.989184
2.08832 -42.9971 79.7764 0.0953132 0.0965459 0.990706
1.66084 -43.7567 79.9084 0.0902657 0.119921 0.988659
0.485145 -43.3121 79.9733 0.00661107 0.0959739 0.990906
-0.332875 -43.7835 79.9355 -0.103692 0.0525998 0.993218
-1.34089 -43.4492 79.7905 -0.147293 0.0630262 0.98674
-1.57551 -43.3383 79.742 -0.190121 0.0978971 0.97599
-1.74191 -44.0419 79.7527 -0.176285 0.0554627 0.982758
-0.650238 -44.3931 79.9346 -0.104142 0.0516387 0.99322
0.579604 -44.4424 80.0662 -0.0172616 0.0633541 0.993977
2.02547 -44.4073 79.947 0.0952392 0.0808383 0.992151
3.0193 -44.2643 79.8047 0.136639 0.116429 0.983755
4.01035 -43.5698 79.5697 0.252901 0.0976872 0.956163
3.22915 -42.7765 79.5793 0.155052 0.1083 0.981613
2.29737 -42.3477 79.6994 0.127061 0.0855268 0.987472
0.932667 -42.1479 79.804 0.0940928 0.0976122 0.990696
-0.094953 -42.1388 79.8185 -0.123607 0.123269 0.983231
-1.19357 -42.1421 79.639 -0.159351 0.160566 0.974077
-2.62025 -41.872 79.3074 -0.213757 0.143506 0.966289
-3.53737 -41.6334 79.0801 -0.258582 0.116105 0.95741
-4.41771 -42.0544 78.8648 -0.294812 0.139403 0.945318
-3.74779 -42.8512 79.1727 -0.253757 0.117737 0.960076
-2.62555 -43.5837 79.5554 -0.249584 0.115213 0.961474
-2.43504 -43.6784 79.6032 -0.169994 0.0664128 0.9831
-2.85067 -44.3338 79.5862 -0.204008 0.0946491 0.973056
-1.54022 -44.8755 79.8374 -0.165609 0.0669976 0.983869
-0.185134 -45.2089 80.0271 -0.105505 0.0534751 0.992979
1.47317 -45.2159 80.0639 0.0835999 0.069577 0.993876
2.63255 -45.0708 79.9334 0.132945 0.0776032 0.987998
3.63117 -44.8334 79.7725 0.186362 0.0486195 0.980021
4.53595 -44.3264 79.4232 0.360477 0.0701981 0.930108
5.0578 -43.4469 79.1527 0.345188 0.0591319 0.936669
4.42163 -42.7071 79.3355 0.351904 0.0707437 0.933237
3.24865 -41.979 79.508 0.164563 0.083868 0.982794
1.4727 -41.4707 79.6963 0.0914528 0.0897875 0.99175
0.447731 -41.3935 79.768 -0.0237129 0.162624 0.980531
-0.691532 -41.4007 79.5952 -0.157636 0.178353 0.971257
-1.9885 -41.2567 79.3737 -0.162987 0.128705 0.976712
-3.20762 -41.0058 79.0884 -0.208245 0.097928 0.973161
-4.48751 -40.7085 78.6369 -0.301906 0.139692 0.943016
-5.61297 -40.3375 78.1963 -0.329737 0.0987093 0.938897
-5.84009 -40.8426 78.1895 -0.337643 0.161029 0.927398
-5.41719 -41.8658 78.5206 -0.318246 0.15115 0.935604
-4.89469 -42.7319 78.8122 -0.296444 0.134751 0.945494
-3.80674 -43.7678 79.2677 -0.259244 0.113826 0.959081
-3.25943 -44.1118 79.4538 -0.251664 0.112742 0.961222
-3.81888 -44.6762 79.3713 -0.253858 0.111098 0.96084
-4.61463 -44.0981 79.0562 -0.381115 0.0545972 0.922556
-5.52501 -43.0695 78.5953 -0.401677 0.0519356 0.914307
-6.28846 -41.8563 78.1357 -0.450451 0.06496 0.890434
-6.77567 -40.9636 77.8246 -0.451495 0.0663095 0.889803
-7.22815 -40.0344 77.4895 -0.457784 0.108603 0.882404
-6.67479 -39.1323 77.6125 -0.419489 0.139655 0.896952
-5.41997 -39.5876 78.1849 -0.331214 0.0987536 0.938373
-3.80086 -40.116 78.7764 -0.309762 0.14564 0.939594
-2.53794 -40.4067 79.1704 -0.161724 0.128491 0.976909
-1.36356 -40.6045 79.3435 -0.117392 0.160125 0.980091
-0.306456 -40.6636 79.5224 -0.149401 0.182699 0.971701
0.706753 -40.6864 79.657 -0.0237129 0.162624 0.980531
1.98313 -40.8418 79.5742 0.0770767 0.124524 0.989203
3.28474 -41.2077 79.4037 0.201407 0.137994 0.969739
4.65939 -41.8803 79.1962 0.286646 0.102835 0.949941
5.43389 -42.4869 78.9532 0.345021 0.0619223 0.93655
5.94456 -43.5583 78.8329 0.344976 0.0588822 0.936763
5.56319 -44.4736 79.0329 0.382061 0.0952761 0.919162
4.35984 -45.3695 79.5973 0.360226 0.0990604 0.927572
3.15787 -45.7243 79.9068 0.179881 0.0533665 0.98126
1.99826 -45.8931 80.0508 0.0958912 0.0573966 0.993734
0.9039 -45.9788 80.1675 0.0331286 0.0789962 0.993452
-0.38611 -45.9375 80.0593 -0.0925538 0.0912623 0.991515
-1.46541 -45.6912 79.9189 -0.148109 0.089264 0.98481
-2.45044 -45.3292 79.7245 -0.16273 0.0696106 0.984197
-3.17922 -45.0145 79.5794 -0.210545 0.0887647 0.972261
-3.52055 -45.6803 79.5499 -0.335268 0.0346117 0.94101
-4.90976 -44.8307 78.9759 -0.359642 0.0409314 0.932192
-5.73803 -43.9512 78.5508 -0.40192 0.0587007 0.913758
-6.337 -43.1578 78.219 -0.453065 0.0789874 0.887971
-7.12874 -41.8008 77.7067 -0.453967 0.0631585 0.888774
-7.60354 -40.8798 77.3958 -0.458764 0.0663846 0.886067
-8.04311 -39.9056 77.0499 -0.489353 0.122664 0.862479
-8.34549 -38.7537 76.687 -0.519966 0.115217 0.846381
-7.89944 -38.0424 76.8482 -0.494097 0.134297 0.858972
-7.00637 -38.2131 77.3677 -0.437937 0.115433 0.890619
-5.96154 -38.6021 77.8802 -0.371666 0.113399 0.919746
-4.99981 -38.9647 78.2315 -0.282824 0.133896 0.949778
-4.06518 -39.2678 78.5578 -0.309749 0.145556 0.939611
-3.11085 -39.524 78.9104 -0.273508 0.167605 0.946276
-1.89681 -39.7915 79.1469 -0.115665 0.151635 0.981618
-0.776234 -39.9124 79.3089 -0.149401 0.182699 0.971701
0.289778 -39.9519 79.466 -0.102307 0.195993 0.974899
1.42743 -40.0226 79.5145 0.0760963 0.123998 0.989351
3.24485 -40.4088 79.3025 0.193797 0.114555 0.974266
4.26737 -40.7984 79.1314 0.222462 0.143873 0.964208
5.59364 -41.6602 78.8397 0.345038 0.0619336 0.936543
6.4997 -42.5894 78.5571 0.417558 0.0971395 0.903395
6.84441 -43.6723 78.4656 0.387805 0.0367461 0.921009
5.99621 -45.1596 78.924 0.382061 0.0952761 0.919162
5.1462 -45.8684 79.3383 0.368794 0.0923937 0.924899
3.79005 -46.3707 79.7859 0.231264 0.0353434 0.972249
2.54783 -46.5542 80.0614 0.120052 0.0970728 0.987698
1.32958 -46.6861 80.1968 0.100215 0.107425 0.989134
0.158114 -46.7371 80.1798 -0.0393646 0.045196 0.998202
-0.845891 -46.6469 80.0815 -0.112061 0.0843132 0.989879
-1.88531 -46.3314 79.9138 -0.148109 0.089264 0.98481
-3.3419 -45.7547 79.6098 -0.240602 0.0618158 0.965105
-3.51619 -46.4836 79.5684 -0.310734 0.0207953 0.950269
-2.3302 -46.9625 79.9011 -0.150584 0.0859103 0.984774
-0.618582 -47.4468 80.1753 -0.112061 0.0843132 0.989879
0.420327 -47.485 80.224 -0.0393646 0.045196 0.998202
1.87702 -47.3572 80.2116 0.105698 0.085106 0.990635
3.08946 -47.2177 80.0397 0.139905 0.0806167 0.986877
4.58896 -46.9196 79.6342 0.257304 0.0874977 0.962276
5.7597 -46.4064 79.1438 0.373502 0.0914465 0.92311
6.69635 -45.5499 78.6698 0.388214 0.100208 0.916105
7.40857 -44.5836 78.263 0.38792 0.0679897 0.918625
7.48846 -42.8717 78.1156 0.426949 0.0642408 0.901988
6.84431 -41.8586 78.3193 0.417558 0.0971395 0.903395
6.15458 -41.1718 78.5555 0.410473 0.0991231 0.906469
5.29712 -40.5306 78.8603 0.260745 0.112778 0.957479
4.00642 -39.9119 79.0906 0.215736 0.0923292 0.972076
3.01834 -39.5225 79.2459 0.183568 0.099483 0.977959
1.89894 -39.3205 79.3935 0.0676634 0.130878 0.989039
0.26424 -39.2101 79.3438 -0.10526 0.135425 0.984718
-1.28299 -39.1354 79.1228 -0.121743 0.140225 0.98258
-2.44529 -38.943 78.9581 -0.115027 0.144223 0.982837
-3.70621 -38.5962 78.5722 -0.279649 0.16665 0.944798
-4.68701 -38.2951 78.2322 -0.281321 0.126129 0.951287
-5.87311 -37.8583 77.7915 -0.332063 0.149898 0.93127
-7.19979 -37.2845 77.1328 -0.479706 0.110036 0.870337
-8.2411 -37.091 76.5091 -0.488114 0.108303 0.865882
-9.03017 -37.5587 76.1008 -0.515571 0.0893764 0.85166
-9.16963 -38.6471 76.1656 -0.521591 0.11622 0.845242
-8.83666 -39.7373 76.531 -0.521085 0.137843 0.8423
-8.43004 -40.7375 76.9453 -0.492819 0.120197 0.860966
-7.95432 -41.7016 77.2757 -0.458764 0.0663846 0.886067
-7.4832 -42.6174 77.5781 -0.488654 0.0489733 0.871101
-6.99975 -43.4416 77.8941 -0.48814 0.0494907 0.871361
-5.9411 -44.839 78.5255 -0.412014 0.0600712 0.909195
-5.03854 -45.6902 78.9642 -0.359521 0.0450934 0.932038
-4.1447 -46.1982 79.336 -0.359803 0.0490397 0.931739
-3.86774 -46.3371 79.4503 -0.335268 0.0346117 0.94101
-4.20153 -47.0076 79.355 -0.336006 0.0329517 0.940864
-5.6761 -46.2155 78.7466 -0.384768 0.0648215 0.920153
-6.81478 -44.906 78.134 -0.412014 0.0600712 0.909195
-7.3806 -44.1398 77.7205 -0.49046 0.0793332 0.867301
-8.0157 -43.0681 77.304 -0.49007 0.0495634 0.870273
-8.64399 -41.809 76.8876 -0.494743 0.0365456 0.86827
-9.22282 -40.5451 76.3837 -0.578097 0.0798977 0.812047
-9.62574 -39.5361 75.9924 -0.567405 0.0784749 0.819546
-9.90489 -38.5334 75.6946 -0.522785 0.116906 0.844411
-9.69084 -37.0037 75.6681 -0.5118 0.0597964 0.857018
-8.59688 -36.2244 76.2181 -0.490951 0.0944134 0.866056
-7.70924 -36.2658 76.7113 -0.479713 0.0954612 0.872217
-6.78183 -36.6075 77.2754 -0.410406 0.129118 0.898335
-5.86106 -37.0453 77.6664 -0.32862 0.141458 0.933808
-4.4348 -37.6035 78.2149 -0.283128 0.127591 0.950557
-3.0618 -38.0368 78.6369 -0.235794 0.117594 0.964661
-1.83188 -38.319 78.9386 -0.121597 0.13972 0.982666
-0.719437 -38.4526 79.1017 -0.127912 0.135152 0.982534
0.326935 -38.4693 79.2446 -0.104705 0.156883 0.98143
1.47149 -38.5175 79.3075 0.0116544 0.148469 0.987451
3.1744 -38.794 79.1424 0.167137 0.137827 0.975384
4.67323 -39.376 78.8936 0.258881 0.113858 0.957716
5.74881 -39.9456 78.6308 0.35537 0.103294 0.926801
6.93207 -40.9358 78.1773 0.409544 0.0845944 0.908221
7.7786 -41.8943 77.8811 0.425631 0.0921351 0.900194
8.28468 -42.817 77.733 0.474983 0.043613 0.877083
8.30596 -44.1227 77.7482 0.521975 0.0132329 0.852858
7.95098 -45.1168 78.0212 0.499679 0.0618007 0.863676
6.9088 -46.4217 78.6743 0.436506 0.075887 0.89463
6.18996 -47.051 79.0328 0.37612 0.0919732 0.921994
4.75161 -47.6824 79.651 0.306335 0.0738886 0.94808
3.506 -47.8887 80.0087 0.24983 0.0893478 0.964116
2.51936 -47.998 80.1844 0.143481 0.0854467 0.985955
1.16943 -48.1658 80.3105 -0.0192269 0.085338 0.99591
-0.0379736 -48.2363 80.2737 -0.0349031 0.0991216 0.994462
-1.10786 -48.1275 80.1565 -0.132472 0.0661271 0.988975
-2.478 -47.7037 79.9361 -0.185163 0.0572181 0.979931
-3.46402 -47.2953 79.6037 -0.311648 0.0219231 0.949944
-3.57243 -47.2509 79.5672 -0.311649 0.0208486 0.949968
-3.77086 -47.9651 79.5708 -0.320058 0.109558 0.941037
-2.55843 -48.4536 79.9541 -0.220623 0.0485308 0.974107
-1.13524 -48.8955 80.2033 -0.132743 0.064284 0.989061
-0.0804799 -48.9862 80.3475 -0.0826441 0.0818403 0.991961
1.75328 -48.8222 80.3579 0.0121952 0.0542059 0.998257
2.75784 -48.6913 80.2098 0.143481 0.0854467 0.985955
3.85953 -48.5651 79.9728 0.240537 0.0643079 0.968206
5.08221 -48.4181 79.5834 0.346488 0.0696647 0.935464
6.50513 -47.7902 78.9753 0.432194 0.0642585 0.897293
7.25033 -47.115 78.5219 0.486324 0.0470163 0.872512
7.90842 -46.4209 78.1193 0.485106 0.047935 0.873138
8.58286 -45.4432 77.6662 0.518124 0.0743638 0.852067
8.97857 -44.4415 77.3388 0.522075 0.042886 0.851249
9.09705 -43.3939 77.2377 0.552294 0.0407184 0.832654
8.66452 -41.9995 77.4372 0.497721 0.0872175 0.86121
8.01136 -41.0753 77.6708 0.44198 0.0834973 0.892916
7.06314 -40.0621 78.047 0.422051 0.0766308 0.903327
6.11372 -39.3166 78.4205 0.355502 0.103725 0.926708
5.03723 -38.7477 78.6843 0.305268 0.147835 0.940669
3.94319 -38.2976 78.922 0.148305 0.155853 0.976223
2.79777 -37.9491 79.0476 0.152963 0.177458 0.972168
1.59274 -37.7635 79.1689 0.0430738 0.176023 0.981284
-0.191532 -37.7397 79.0726 -0.104705 0.156883 0.98143
-1.23976 -37.6844 78.9289 -0.127168 0.130253 0.983292
-2.45865 -37.4452 78.7093 -0.206244 0.131409 0.969259
-3.65854 -37.0927 78.3639 -0.259905 0.135941 0.955971
-4.80411 -36.7208 77.985 -0.272078 0.140941 0.951882
-5.84147 -36.2569 77.5537 -0.326201 0.147043 0.933794
-6.71185 -35.8132 77.1772 -0.326761 0.143348 0.934164
-7.63955 -35.473 76.6596 -0.471652 0.115383 0.874202
-8.60963 -35.4172 76.1232 -0.485483 0.0945456 0.869095
-9.56591 -35.6601 75.6141 -0.475019 0.0605598 0.877889
-10.2482 -36.3802 75.294 -0.529088 0.0581648 0.846295
-10.6461 -37.5906 75.1181 -0.54734 0.064697 0.834388
-10.3974 -39.2887 75.4504 -0.555082 0.0917143 0.826723
-10.0556 -40.2268 75.7618 -0.561252 0.066282 0.824986
-9.68088 -41.0894 76.1108 -0.578923 0.0798856 0.811459
-9.10136 -42.3922 76.6528 -0.536054 0.0592736 0.840301
-8.64385 -43.3607 76.9668 -0.492818 0.0508438 0.868639
-8.18648 -44.2112 77.2739 -0.488906 0.0498808 0.870907
-7.6242 -45.019 77.6924 -0.491172 0.106762 0.864494
-7.00107 -45.8061 78.1086 -0.413472 0.0700818 0.907758
-6.23701 -46.7333 78.5378 -0.411923 0.0786424 0.907819
-5.28039 -47.3958 78.9619 -0.356731 0.0491997 0.932909
-4.26213 -47.7807 79.3804 -0.352108 0.0878417 0.931039
-4.57343 -48.4713 79.3002 -0.381555 0.0651706 0.922046
-3.23818 -48.9551 79.8173 -0.309914 0.0521296 0.949305
-2.19608 -49.4077 80.0779 -0.199746 0.0465525 0.978614
-1.2213 -49.6534 80.2396 -0.135122 0.0619291 0.988892
-0.142641 -49.7285 80.3877 -0.0961312 0.0404097 0.993694
1.03429 -49.6576 80.4098 0.00440859 0.0374403 0.999251
2.47589 -49.4668 80.3086 0.133639 0.0732835 0.988271
3.78788 -49.3213 80.0373 0.233936 0.0607797 0.970207
5.30314 -49.1578 79.5517 0.349287 0.0525797 0.935539
6.27565 -48.8747 79.1593 0.418717 0.0491687 0.904518
7.0738 -48.319 78.6865 0.487263 0.0478371 0.871944
8.04353 -47.3504 78.0934 0.485356 0.0463165 0.873089
8.7754 -46.5012 77.643 0.491188 0.0588454 0.868893
9.38052 -45.4424 77.1881 0.503603 0.0837874 0.859862
9.71277 -44.4172 76.8769 0.566134 0.0623097 0.819864
9.76458 -43.1855 76.7889 0.527029 0.0437958 0.848717
9.55601 -42.1657 76.872 0.548471 0.0514582 0.834512
8.75108 -40.8753 77.2774 0.492725 0.0830195 0.865007
8.05249 -40.0358 77.56 0.471254 0.0772081 0.878407
7.21446 -39.2239 77.9059 0.423642 0.0871612 0.901561
5.99023 -38.4092 78.3158 0.316221 0.160366 0.934977
4.97455 -37.9029 78.5632 0.306952 0.15718 0.938656
3.83206 -37.4927 78.8254 0.128456 0.142421 0.981409
2.50698 -37.0758 78.9338 0.140546 0.163128 0.976349
1.17926 -36.9972 79.0476 0.0365323 0.173501 0.982176
0.076815 -37.0125 78.9834 -0.0833484 0.151299 0.984923
-1.73149 -36.8897 78.7601 -0.126914 0.131256 0.983191
-2.914 -36.5778 78.4873 -0.22759 0.140835 0.963126
-3.89841 -36.2695 78.1743 -0.270444 0.146834 0.951471
-4.96742 -35.8427 77.7938 -0.303246 0.150969 0.940564
-5.96208 -35.3546 77.3696 -0.327558 0.146761 0.933362
-6.92579 -34.8638 76.9607 -0.3236 0.143151 0.935303
-7.81473 -34.6291 76.4546 -0.471542 0.114581 0.874368
-9.42322 -34.7266 75.6265 -0.467278 0.0751358 0.880771
-10.2407 -35.1476 75.2136 -0.510152 0.0600189 0.857009
-10.8112 -35.9268 74.8946 -0.546487 0.0571824 0.835513
-11.2221 -36.979 74.697 -0.547803 0.0580646 0.834588
-11.3139 -37.9971 74.7135 -0.546397 0.0688951 0.834685
-11.1586 -38.9973 74.9043 -0.552185 0.0827175 0.82955
-10.8419 -39.9859 75.2073 -0.561311 0.0676042 0.824839
-10.4157 -40.9922 75.5772 -0.570133 0.0720569 0.818283
-9.94833 -42.0445 76.0153 -0.577969 0.0812221 0.812006
-9.43112 -43.2535 76.5 -0.543103 0.0571756 0.836506
-8.99022 -44.2024 76.8023 -0.507768 0.0360061 0.860741
-8.38601 -45.1772 77.2323 -0.534455 0.0736794 0.84198
-7.79953 -45.9106 77.6671 -0.531145 0.0637708 0.844835
-7.21479 -46.694 78.0555 -0.489158 0.0356482 0.871463
-6.6072 -47.5205 78.4374 -0.452583 0.059708 0.888392
-5.52822 -48.1424 78.9083 -0.359279 0.0535923 0.93169
-4.74584 -48.4102 79.2246 -0.36883 0.0603202 0.927424
-4.92127 -49.1447 79.1996 -0.373148 0.0568129 0.925895
-5.89203 -48.8585 78.8068 -0.366883 0.0459911 0.92913
-7.00241 -48.3544 78.2527 -0.499278 0.0500632 0.864919
-7.56919 -47.4831 77.8853 -0.510606 0.0402958 0.858771
-8.21649 -46.4575 77.4425 -0.530681 0.0571966 0.845637
-8.80814 -45.7539 77.0141 -0.52328 0.0675304 0.849348
-9.5424 -44.5941 76.4937 -0.508683 0.048922 0.859484
-10.1709 -43.1486 75.965 -0.57744 0.0744607 0.813031
-10.5488 -42.2452 75.608 -0.577969 0.0812221 0.812006
-11.11 -41.0167 75.0792 -0.589202 0.0540638 0.806136
-11.5168 -40.0249 74.7236 -0.590695 0.0479025 0.80547
-11.7898 -39.0887 74.4463 -0.609922 0.0575426 0.790282
-11.9755 -38.1257 74.2429 -0.614904 0.0501269 0.787007
-11.7698 -36.3897 74.2935 -0.621492 0.0486799 0.781907
-10.9964 -34.9104 74.7037 -0.546489 0.057391 0.835497
-10.2927 -34.1993 75.1113 -0.540881 0.0901739 0.835974
-9.09326 -33.8935 75.7142 -0.460846 0.090269 0.882877
-7.89081 -33.814 76.3283 -0.454985 0.0912044 0.885815
-6.30247 -34.3231 77.0936 -0.3236 0.143151 0.935303
-5.47243 -34.7878 77.4515 -0.324742 0.144917 0.934631
-4.61059 -35.2007 77.7939 -0.280271 0.156248 0.947119
-3.13826 -35.7491 78.3085 -0.234677 0.15671 0.95868
-2.03624 -36.0669 78.585 -0.180909 0.154896 0.971161
-0.595175 -36.2951 78.8073 -0.0919841 0.155405 0.983559
0.46655 -36.2766 78.8959 -0.0762531 0.161727 0.98388
1.68443 -36.2224 78.844 0.068796 0.169308 0.983159
2.92745 -36.3821 78.7639 0.118744 0.166353 0.978889
4.1572 -36.8393 78.6781 0.226845 0.151316 0.957422
5.40801 -37.301 78.3183 0.316599 0.15175 0.936255
6.52573 -37.8905 78.039 0.322282 0.159336 0.933134
7.51474 -38.5399 77.6899 0.425232 0.097429 0.899825
8.54037 -39.4967 77.2437 0.50505 0.102153 0.857002
9.17733 -40.3139 76.9606 0.519737 0.086284 0.849749
9.76631 -41.0964 76.655 0.547906 0.0638974 0.834095
10.3121 -42.4767 76.4132 0.532814 0.0602887 0.843897
10.4627 -43.5123 76.3706 0.545742 0.0267636 0.837316
10.3627 -44.6772 76.4479 0.566134 0.0623097 0.819864
10.0608 -45.6701 76.8108 0.544521 0.102089 0.831068
9.46183 -46.7185 77.2592 0.523366 0.0572151 0.849795
8.66233 -47.7737 77.7764 0.478755 0.0493446 0.876561
7.5347 -48.923 78.4614 0.487402 0.0464795 0.87194
6.11382 -49.7401 79.2813 0.418717 0.0491687 0.904518
5.06657 -49.9505 79.6832 0.334486 0.0319188 0.94172
3.82914 -50.0687 80.0647 0.261207 0.0376215 0.964499
2.84643 -50.1509 80.3163 0.115477 0.0469012 0.991586
1.74964 -50.309 80.4171 0.04711 0.020646 0.998313
0.718709 -50.4309 80.4383 0.012714 0.0367662 0.999232
-0.414423 -50.4646 80.3817 -0.0633105 0.0139174 0.997897
-1.49579 -50.3633 80.2466 -0.159652 0.0469166 0.985633
-2.58279 -50.0793 80.0299 -0.18729 0.0357853 0.981651
-4.09327 -49.4272 79.5627 -0.352039 0.0610801 0.933184
-4.3201 -49.3482 79.4661 -0.384394 0.0483584 0.92182
-4.67284 -50.0059 79.3465 -0.378361 0.0393634 0.924811
-5.83328 -49.651 78.8689 -0.366774 0.0456869 0.929188
-6.89951 -49.3811 78.3848 -0.503225 0.0613658 0.861974
-7.91886 -48.3677 77.7296 -0.497272 0.0405057 0.866649
-8.44468 -47.263 77.3538 -0.528011 0.0544757 0.847426
-9.06601 -46.5211 76.9104 -0.562677 0.0670701 0.823131
-9.82721 -45.5888 76.3509 -0.573436 0.00145633 0.819248
-10.4872 -44.0242 75.8045 -0.6395 0.0181096 0.768578
-10.9222 -43.1509 75.423 -0.627242 0.0498607 0.77633
-11.3966 -41.8951 74.9376 -0.621138 0.0637986 0.780938
-11.8961 -40.8447 74.4822 -0.605443 0.0453493 0.794555
-12.2462 -39.885 74.1585 -0.617933 0.0577227 0.784087
-12.5255 -38.7325 73.8511 -0.621082 0.0390479 0.782677
-12.5657 -37.071 73.705 -0.619341 0.0560939 0.783115
-12.3415 -36.0413 73.8172 -0.621333 0.0496124 0.781974
-11.7331 -34.7847 74.2027 -0.568153 0.0723081 0.819567
-10.9429 -33.7495 74.6408 -0.554272 0.0722079 0.829198
-10.1289 -33.2838 75.0937 -0.48956 0.117697 0.863607
-8.77231 -33.0613 75.7955 -0.467852 0.10493 0.877554
-7.48868 -33.0552 76.427 -0.437351 0.134094 0.889237
-6.59189 -33.3732 76.8578 -0.340127 0.14101 0.929577
-5.73389 -33.8006 77.2185 -0.329287 0.127797 0.935541
-4.90317 -34.2686 77.5502 -0.267963 0.154098 0.9509
-3.3111 -34.9158 78.1271 -0.255047 0.171604 0.951365
-2.31845 -35.2639 78.3974 -0.199232 0.144706 0.969202
-1.27987 -35.5098 78.6236 -0.107215 0.151128 0.982518
-0.262279 -35.5853 78.7288 -0.0837514 0.14148 0.98638
0.815052 -35.5322 78.7941 0.0213909 0.155726 0.985699
2.62705 -35.4344 78.6417 0.0939805 0.166224 0.981286
4.22599 -36.0957 78.5391 0.241395 0.168616 0.951072
5.27781 -36.4892 78.2319 0.329561 0.15566 0.931212
6.41295 -36.9957 77.9252 0.319851 0.159823 0.933891
7.84968 -37.8901 77.4299 0.472151 0.115793 0.873844
9.02267 -38.9737 76.8925 0.509073 0.0991648 0.854982
9.68089 -39.8636 76.6045 0.52729 0.0869754 0.844911
10.3507 -40.6915 76.2392 0.552206 0.0654053 0.831124
10.7762 -41.7531 76.0309 0.567127 0.062769 0.821171
11.0151 -42.8344 75.9681 0.604051 0.063089 0.792763
11.0959 -43.929 75.9441 0.638284 0.0284768 0.769271
11.0417 -44.9344 75.9986 0.566135 0.0620164 0.819947
10.4714 -46.4182 76.6128 0.640083 0.0267834 0.767345
9.88998 -47.3289 77.0151 0.543407 0.0456135 0.838229
9.25651 -48.2043 77.4525 0.5258 0.0543504 0.848428
8.55605 -48.9057 77.8985 0.478003 0.0495942 0.876957
7.77419 -49.832 78.3761 0.482536 0.0477599 0.874554
6.87763 -50.5138 78.9021 0.477125 0.0378292 0.878017
5.32864 -50.6351 79.6133 0.353224 0.0650699 0.93297
4.18661 -50.7788 79.99 0.304753 0.0292599 0.951883
2.66103 -50.9339 80.3301 0.156976 0.011235 0.986946
1.59802 -51.0762 80.4333 0.0667298 0.00995563 0.997715
0.168971 -51.2003 80.4278 -0.0480094 0.0439051 0.997259
-1.01641 -51.155 80.3573 -0.0894088 0.0426757 0.994413
-2.1252 -51.0092 80.1495 -0.185827 0.0329555 0.982028
-3.2333 -50.5956 79.9118 -0.262833 0.0365133 0.96325
-4.36708 -50.1036 79.4766 -0.380947 0.0364863 0.923877
-4.52352 -50.9283 79.4486 -0.375855 0.0415966 0.925744
-3.553 -51.2538 79.8365 -0.317953 0.0408135 0.947046
-2.26116 -51.9159 80.1754 -0.185938 0.0593404 0.980762
-0.566478 -51.8932 80.4275 -0.117206 0.0272555 0.992732
0.459094 -51.9348 80.4909 0.0321325 0.00519422 0.999447
1.65708 -51.8877 80.4368 0.0616203 0.00918983 0.998056
2.73555 -51.7237 80.354 0.186483 0.0205758 0.981629
4.05759 -51.543 80.0537 0.226865 0.00337292 0.973877
5.14058 -51.4704 79.7199 0.282015 0.0661318 0.957046
6.21638 -51.5183 79.3088 0.464448 0.0362978 0.884838
7.47984 -51.1729 78.6111 0.475911 0.0490187 0.878126
8.4686 -50.0581 78.0106 0.479656 0.0423566 0.876407
9.50257 -48.9839 77.3694 0.4921 0.0538695 0.868822
10.2197 -48.2615 76.8117 0.623196 0.013745 0.781701
10.7564 -47.5047 76.3819 0.63254 0.00241526 0.774524
11.4396 -45.9406 75.7553 0.647063 0.0495837 0.760818
11.711 -44.3179 75.4506 0.619911 0.0515353 0.782976
11.6453 -43.1281 75.4571 0.638752 0.0355679 0.76858
11.5982 -41.8443 75.4353 0.627583 0.046597 0.776973
11.2662 -40.8244 75.6232 0.606471 0.0608046 0.792579
10.1271 -39.3048 76.2674 0.546378 0.0724303 0.834387
9.49998 -38.4556 76.5448 0.514753 0.0996877 0.851516
8.89624 -37.5694 76.8169 0.478463 0.0785987 0.874571
8.1127 -37.043 77.1969 0.46281 0.0742473 0.883121
7.20657 -36.6535 77.5906 0.3243 0.163147 0.931779
6.10972 -36.0074 77.8589 0.328585 0.149974 0.932384
5.29418 -35.6463 78.0905 0.320817 0.146425 0.935744
4.34274 -35.3657 78.38 0.241395 0.168616 0.951072
3.43753 -34.8874 78.4193 0.155259 0.173149 0.9722
2.05294 -34.6472 78.5696 0.0910121 0.151041 0.984182
1.02382 -34.7818 78.671 0.0213909 0.155726 0.985699
-0.0973527 -34.815 78.6318 -0.0695352 0.158212 0.98461
-1.40161 -34.7316 78.4805 -0.122587 0.159099 0.97962
-2.41373 -34.4477 78.2535 -0.201851 0.147 0.968322
-3.47558 -34.05 77.9268 -0.255047 0.171604 0.951365
-4.42682 -33.6243 77.582 -0.255397 0.14567 0.955798
-5.36544 -33.0209 77.2393 -0.291079 0.13752 0.945996
-6.31117 -32.5117 76.8272 -0.345969 0.144466 0.927013
-7.342 -32.2675 76.3832 -0.402912 0.143066 0.903098
-8.54101 -32.2211 75.8026 -0.423051 0.111937 0.899164
-9.51884 -32.3033 75.3084 -0.474802 0.102531 0.873988
-10.5613 -32.5827 74.7345 -0.515948 0.0912337 0.851611
-11.4735 -33.2368 74.2414 -0.542427 0.090868 0.834862
-12.0544 -34.0451 73.9103 -0.575542 0.0709534 0.814664
-12.6506 -34.9217 73.5578 -0.589993 0.0350448 0.805901
-13.0997 -36.4367 73.2439 -0.614038 0.0155883 0.789016
-13.2768 -37.4165 73.1604 -0.641304 0.0549436 0.765317
-13.102 -38.8985 73.3938 -0.634182 0.0322215 0.772432
-13.0138 -39.8827 73.5089 -0.684401 0.0167042 0.728915
-12.6335 -41.0779 73.8927 -0.683034 0.0144158 0.73024
-12.1621 -42.0618 74.3576 -0.646797 0.0418227 0.759732
-11.761 -43.0438 74.736 -0.632721 0.0478251 0.772694
-11.2383 -43.9602 75.1789 -0.628578 0.0135204 0.777625
-10.7749 -44.8079 75.5835 -0.6395 0.0181096 0.768578
-10.5362 -45.8142 75.8249 -0.641132 0.029719 0.76685
-10.0877 -46.6818 76.1692 -0.585209 0.0364207 0.809106
-9.41224 -47.2657 76.7265 -0.596701 0.072712 0.799162
-8.8543 -48.0089 77.1449 -0.522829 0.0430758 0.851335
-8.3182 -49.2325 77.5315 -0.526857 0.0363378 0.849168
-7.73725 -50.0308 77.9249 -0.524566 0.0365486 0.850585
-6.77714 -50.2633 78.5165 -0.513249 0.0304269 0.857682
-5.34721 -50.5868 79.1018 -0.365176 0.0403653 0.930063
-5.17653 -50.7318 79.175 -0.370747 0.0402828 0.92784
-5.05126 -50.7192 79.2254 -0.375783 0.0409977 0.9258
