-1.88642 -43.1502 81.0457 -0.156959 0.149289 0.976255
-0.746243 -43.4341 81.2703 -0.125312 0.11374 0.984487
0.660797 -43.2782 81.3158 -0.00107124 0.139235 0.990258
-0.0858789 -42.794 81.2602 -0.0139051 0.109616 0.993613
-1.30076 -42.7357 81.0795 -0.182903 0.0713606 0.980524
-1.38256 -42.7423 81.0644 -0.171664 0.111696 0.978005
-1.37786 -42.1079 81.0165 -0.186639 0.0754733 0.979525
0.269229 -42.1588 81.1951 -0.0217189 0.100747 0.994581
1.5868 -42.4893 81.2171 0.0294096 0.10912 0.993341
2.82608 -42.6993 81.1052 0.128836 0.101611 0.986218
4.52586 -43.3423 80.8274 0.297792 0.0754498 0.949782
3.86838 -44.0319 81.0297 0.251888 0.0416713 0.966857
2.34207 -44.3226 81.3469 0.112531 0.100318 0.988563
0.876998 -44.3272 81.4332 -0.0163822 0.0892887 0.995817
-0.265991 -44.2271 81.3776 -0.0564673 0.0750741 0.995578
-1.70148 -44.0915 81.2186 -0.134641 0.108952 0.983832
-2.86975 -43.8191 80.9438 -0.217988 0.140747 0.965749
-4.02646 -42.8063 80.5422 -0.271739 0.129083 0.951681
-3.6657 -42.2857 80.5513 -0.212624 0.130215 0.968419
-2.61185 -42.2092 80.771 -0.222269 0.104612 0.96894
-2.05568 -42.2102 80.8947 -0.18902 0.07812 0.978856
-2.04883 -41.4531 80.8335 -0.190244 0.0818903 0.978315
-0.731787 -41.4704 81.0528 -0.145521 0.106192 0.983277
0.669774 -41.5261 81.1304 -0.0019398 0.103468 0.994583
2.12039 -41.7907 81.1069 0.0509966 0.116273 0.991901
3.25333 -42.014 80.9941 0.132359 0.0775792 0.988157
4.638 -42.5512 80.6921 0.343854 0.0968212 0.933907
5.6322 -43.3286 80.4191 0.343234 0.108705 0.932936
5.30521 -44.3481 80.6551 0.389095 0.0874487 0.917036
4.28203 -44.7248 80.9483 0.255018 0.0355188 0.966268
3.33592 -44.9302 81.2002 0.241199 0.0270205 0.970034
1.8336 -45.0153 81.4756 0.109346 0.109247 0.987959
0.633504 -45.0348 81.4849 -0.0412647 0.0663895 0.996915
-0.817479 -44.941 81.3746 -0.0967062 0.0801247 0.992036
-2.10104 -44.806 81.2308 -0.186811 0.0746903 0.975953
-3.09949 -44.4995 80.941 -0.256998 0.0461554 0.965309
-4.04837 -43.8747 80.6535 -0.345559 0.0557335 0.93237
-4.76535 -43.0085 80.3082 -0.330081 0.125795 0.935531
-5.3793 -41.9182 79.9446 -0.334464 0.122626 0.934394
-4.70665 -41.2237 80.0949 -0.324223 0.132494 0.936577
-3.18557 -41.432 80.568 -0.23611 0.0807511 0.968365
-2.30576 -41.4658 80.7845 -0.212519 0.0798386 0.973635
-2.29113 -40.7368 80.727 -0.211842 0.0812496 0.973628
-0.342353 -40.7961 81.0146 -0.0715776 0.155969 0.984837
0.923642 -40.8684 81.0471 0.0177898 0.10146 0.994446
2.06964 -41.0195 81.0172 0.0579369 0.099351 0.993163
3.59904 -41.3564 80.8313 0.21727 0.161002 0.962677
4.60165 -41.7236 80.6324 0.344929 0.0876124 0.934518
5.78401 -42.4214 80.2562 0.344469 0.0962311 0.933745
6.45816 -43.1819 80.0567 0.389191 0.0856167 0.91717
6.5336 -44.2187 80.1219 0.392843 0.0941939 0.914743
5.53188 -45.0756 80.6526 0.316698 0.0935365 0.93903
4.37807 -45.4471 80.949 0.239816 0.0450561 0.969673
3.10909 -45.6676 81.271 0.230407 0.0232896 0.972814
1.96725 -45.7267 81.5441 0.170865 0.0689656 0.979871
0.734907 -45.7425 81.5385 -0.0390385 0.0827414 0.995806
-0.884928 -45.6709 81.4337 -0.0893976 0.0838364 0.992442
-2.02802 -45.5569 81.3031 -0.187143 0.0796378 0.975508
-3.05357 -45.309 80.9992 -0.269706 0.0669862 0.960609
-4.09984 -44.7738 80.6871 -0.345439 0.0517713 0.932328
-4.89854 -43.9999 80.2554 -0.432377 0.056133 0.899943
-5.56884 -42.9881 79.9593 -0.427442 -0.000564946 0.903801
-6.28522 -41.6481 79.506 -0.443636 0.0938224 0.891281
-6.82933 -40.6412 79.127 -0.448599 0.094095 0.888766
-6.47353 -40.2679 79.25 -0.427194 0.144616 0.892519
-5.36027 -40.4094 79.7463 -0.323407 0.148688 0.934487
-4.17918 -40.5635 80.1734 -0.319475 0.143975 0.936593
-3.18612 -40.6835 80.4908 -0.278052 0.146782 0.949282
-2.90781 -40.7013 80.5743 -0.255404 0.114195 0.959254
-2.87832 -39.9724 80.4702 -0.267479 0.162675 0.949565
-4.06048 -39.8467 80.1029 -0.299839 0.14592 0.942543
-5.7436 -39.5596 79.4725 -0.326649 0.153188 0.932649
-6.71184 -39.247 78.9692 -0.424963 0.143473 0.893758
-7.65499 -38.9346 78.4741 -0.423815 0.140671 0.894758
-8.11324 -39.9741 78.3809 -0.48126 0.101089 0.870316
-7.4913 -41.0415 78.8354 -0.472762 0.0895637 0.876186
-6.9511 -41.9214 79.2024 -0.446242 0.0943261 0.889922
-6.40739 -42.8146 79.543 -0.435485 0.00979121 0.900129
-5.74233 -43.9903 79.8713 -0.424499 -0.00915977 0.905292
-5.09836 -44.8735 80.2138 -0.410476 0.089745 0.906505
-4.18528 -45.5816 80.7003 -0.345439 0.0517713 0.932328
-3.07619 -46.0862 81.0526 -0.254466 0.117351 0.959934
-1.93148 -46.3072 81.3829 -0.187143 0.0796378 0.975508
-0.460683 -46.4121 81.5293 -0.0859728 0.0789802 0.993162
0.541856 -46.4393 81.5888 -0.039262 0.0832035 0.995759
1.65292 -46.4364 81.6419 0.0452733 0.0849356 0.990119
2.65696 -46.4226 81.4404 0.229884 0.124585 0.965211
3.78383 -46.3021 81.1562 0.229624 0.124765 0.965249
4.95693 -46.0475 80.8456 0.229472 0.0536762 0.971834
6.35098 -45.5065 80.3466 0.403164 0.119572 0.90728
7.12544 -44.8191 79.92 0.484529 0.0566112 0.872871
7.47081 -43.8595 79.6578 0.520892 0.0539634 0.851421
6.92761 -42.5486 79.7904 0.400672 0.0920364 0.911578
5.81329 -41.5528 80.1534 0.375519 0.108299 0.920466
4.77085 -41.0096 80.4994 0.285243 0.123646 0.948
3.39405 -40.5334 80.7445 0.216017 0.150685 0.964606
1.68021 -40.2305 80.9561 0.140317 0.156802 0.976841
0.589626 -40.1348 80.946 -0.0313123 0.168424 0.985176
-0.589808 -40.1001 80.8703 -0.120742 0.192558 0.97382
-1.8422 -40.0433 80.7014 -0.119814 0.183052 0.975645
-2.25212 -40.0186 80.65 -0.18592 0.173927 0.964132
-2.18405 -39.3089 80.5351 -0.18592 0.173927 0.964132
-3.69285 -39.1623 80.0905 -0.261792 0.178178 0.948527
-4.88908 -38.9796 79.6764 -0.31952 0.163156 0.933362
-5.83756 -38.7919 79.3135 -0.377091 0.149824 0.912353
-6.88192 -38.3799 78.7529 -0.422897 0.140356 0.895242
-7.91236 -38.0611 78.2142 -0.44974 0.132563 0.88278
-8.86647 -38.1941 77.672 -0.511933 0.14801 0.846178
-9.03656 -39.3273 77.759 -0.529926 0.102775 0.84103
-8.382 -40.8167 78.3028 -0.492205 0.0745154 0.867277
-7.82323 -41.755 78.7151 -0.496155 0.085097 0.864053
-7.37382 -42.5993 79.0537 -0.473089 0.0729899 0.877558
-6.86233 -43.4381 79.3317 -0.410392 0.0485416 0.909487
-6.24839 -44.5057 79.6693 -0.390927 0.0950762 0.914919
-5.27072 -45.7739 80.2637 -0.394983 0.11358 0.911539
-3.90915 -46.5827 80.8923 -0.321051 0.0944496 0.939519
-2.79388 -46.9244 81.2287 -0.252786 0.116529 0.960479
-1.81042 -47.0493 81.4585 -0.154274 0.0741708 0.98325
-0.0527741 -47.137 81.6224 -0.0935918 0.0918692 0.991266
1.26233 -47.1454 81.6984 -0.0227476 0.0674383 0.996131
2.58315 -47.1439 81.5503 0.191793 0.0960918 0.975566
3.5604 -47.0655 81.3081 0.22819 0.124362 0.965641
5.30455 -46.7002 80.8324 0.250663 0.121939 0.960348
6.33633 -46.3498 80.4331 0.472015 0.062419 0.879288
7.39675 -45.6504 79.8201 0.476942 0.0517027 0.877411
7.96042 -44.8749 79.4507 0.495714 0.0614531 0.866298
8.20755 -43.7639 79.201 0.520892 0.0539634 0.851421
7.84314 -42.6004 79.3907 0.462745 0.0568689 0.881473
7.22081 -41.7553 79.5781 0.398259 0.0999248 0.911814
5.81076 -40.7075 80.0552 0.376452 0.105671 0.920386
4.46725 -40.1414 80.4262 0.230013 0.161401 0.959709
3.4029 -39.7845 80.6173 0.191406 0.172763 0.965519
2.03138 -39.5533 80.8158 0.16188 0.129528 0.978226
0.702961 -39.4503 80.8287 -0.040951 0.182942 0.98227
-0.560727 -39.4045 80.7391 -0.118083 0.178683 0.976727
-1.96927 -39.3218 80.562 -0.112814 0.168845 0.979165
-2.12075 -38.5886 80.4174 -0.18816 0.173992 0.963619
-3.11622 -38.5155 80.1299 -0.260001 0.172122 0.950143
-4.09088 -38.4018 79.8382 -0.314458 0.173005 0.933373
-5.28851 -38.162 79.3907 -0.309503 0.156877 0.937713
-6.58343 -37.6968 78.8205 -0.436761 0.0798896 0.896021
-7.47717 -37.3631 78.3508 -0.466583 0.115197 0.875708
-8.55588 -37.1557 77.6852 -0.506776 0.145877 0.84962
-9.37857 -37.5063 77.2478 -0.510921 0.140972 0.84799
-9.76373 -39.2189 77.2442 -0.57878 0.0828253 0.81126
-9.25371 -40.7338 77.7753 -0.585399 0.0868283 0.806082
-8.39144 -42.1137 78.4238 -0.50017 0.0781745 0.862351
-7.77043 -43.1824 78.8754 -0.505328 0.0728069 0.859848
-7.17764 -44.2535 79.2671 -0.381353 0.0651725 0.922129
-6.46143 -45.5438 79.7128 -0.403382 0.10963 0.9084
-5.84345 -46.255 80.0646 -0.390186 0.0845108 0.91658
-4.81856 -46.9357 80.5366 -0.386815 0.070307 0.919473
-3.64521 -47.4857 81.07 -0.319615 0.0911635 0.940398
-2.61391 -47.7028 81.3221 -0.214049 0.0617116 0.97487
-0.938744 -47.8207 81.6022 -0.094881 0.0939666 0.990978
0.0823788 -47.8456 81.7099 -0.07846 0.106177 0.990962
1.77789 -47.8567 81.72 0.0437964 0.111983 0.992714
2.91933 -47.8397 81.5508 0.166122 0.0920732 0.981651
3.95184 -47.7473 81.3032 0.228213 0.117524 0.966492
5.20567 -47.4703 80.9555 0.304474 0.0786696 0.946287
6.31191 -47.1681 80.4969 0.379501 0.0336021 0.924523
7.13872 -46.7882 80.0366 0.475648 0.0734925 0.87656
8.11397 -45.9577 79.4388 0.498405 0.0641973 0.864564
8.86644 -44.5844 78.88 0.517836 0.081785 0.851561
8.735 -42.9067 78.8507 0.536095 0.0368699 0.843152
8.26926 -41.9357 79.0988 0.545701 0.0641074 0.835396
7.61712 -41.1358 79.3263 0.429917 0.130235 0.893426
6.81901 -40.4606 79.6102 0.436056 0.105125 0.89336
5.74516 -39.8823 79.9877 0.372329 0.105935 0.922035
4.57529 -39.4227 80.2804 0.230918 0.160784 0.959596
3.60941 -39.0933 80.4729 0.206429 0.126338 0.969717
1.79991 -38.7906 80.7499 0.0646126 0.159319 0.979292
-0.107275 -38.7285 80.6783 -0.0708741 0.15458 0.984323
-1.09771 -38.6622 80.5494 -0.117451 0.163622 0.979506
-1.13968 -38.6584 80.5437 -0.116104 0.166923 0.979102
-0.949253 -37.9729 80.452 -0.117451 0.163622 0.979506
0.447371 -38.0464 80.5926 -0.0267783 0.146035 0.988915
1.48651 -38.0711 80.6215 0.0027104 0.179337 0.982802
2.51874 -38.132 80.5317 0.163114 0.164031 0.972517
3.80205 -38.3897 80.3392 0.206234 0.130637 0.969189
5.30146 -38.926 80.0312 0.266277 0.139784 0.953086
6.25301 -39.3266 79.7168 0.375934 0.108287 0.920295
7.63336 -40.1858 79.1803 0.436056 0.105125 0.89336
8.371 -40.9195 78.932 0.429917 0.130235 0.893426
8.96338 -41.8051 78.6353 0.545701 0.0641074 0.835396
9.3985 -42.7097 78.404 0.547752 0.0492097 0.835192
9.60888 -44.1287 78.3775 0.535526 0.0892427 0.839653
9.40385 -45.1403 78.6006 0.524762 0.0793054 0.847545
8.80112 -46.2208 79.0618 0.499041 0.0638787 0.864221
8.07314 -47.0419 79.5456 0.492164 0.0684962 0.867743
7.19699 -47.576 80.0711 0.47979 0.0694232 0.874604
6.09776 -48.0004 80.6246 0.395669 0.0354746 0.917525
5.04281 -48.2664 81.0652 0.338094 0.0667244 0.938061
3.55365 -48.5108 81.49 0.228213 0.117524 0.966492
2.55133 -48.568 81.6808 0.148052 0.0966706 0.984235
1.44145 -48.5636 81.8114 0.0358215 0.0737167 0.996046
0.220659 -48.5543 81.7977 -0.0742919 0.108811 0.990882
-0.997738 -48.528 81.6696 -0.110851 0.0790665 0.990362
-2.42153 -48.4618 81.4376 -0.195282 0.116953 0.973743
-3.39215 -48.3253 81.224 -0.287613 0.082576 0.949037
-4.43954 -47.9799 80.7702 -0.386864 0.0582316 0.920296
-5.31819 -47.5225 80.3714 -0.387097 0.0641542 0.919783
-6.27889 -46.8507 79.8905 -0.453795 0.0252508 0.890748
-7.08556 -45.9153 79.446 -0.46527 0.0296011 0.884673
-7.90137 -44.3273 78.8981 -0.506106 0.0748822 0.859215
-8.54516 -43.1746 78.4211 -0.504 0.0695155 0.860901
-9.11291 -42.2336 78.0121 -0.523194 0.0648037 0.849409
-9.82669 -41.0041 77.3891 -0.574935 0.0990823 0.812178
-10.2426 -39.9467 76.9737 -0.58061 0.0793378 0.810294
-10.4588 -38.773 76.7077 -0.576549 0.0783793 0.813294
-10.323 -37.6398 76.6987 -0.575562 0.0742976 0.814376
-9.27455 -36.4542 77.1357 -0.506482 0.111804 0.854464
-8.0045 -36.4317 77.8826 -0.502422 0.151037 0.851328
-7.09453 -36.6583 78.4477 -0.490672 0.147337 0.858794
-6.12446 -37.0811 78.9615 -0.301431 0.134337 0.943975
-5.13804 -37.4658 79.3354 -0.303646 0.141818 0.942169
-4.10769 -37.7067 79.7123 -0.290015 0.165165 0.942134
-2.8655 -37.8192 80.0719 -0.265888 0.146373 0.952445
-1.70577 -37.9039 80.3491 -0.12011 0.169618 0.978144
-1.64748 -37.1828 80.2269 -0.128598 0.178656 0.975442
-0.0889655 -37.323 80.4457 -0.118909 0.170318 0.978162
1.14084 -37.3631 80.4764 0.0234533 0.212938 0.97677
3.03442 -37.4419 80.3142 0.155548 0.191039 0.96918
4.07036 -37.707 80.1863 0.257173 0.144725 0.954964
5.40972 -38.1934 79.8713 0.289705 0.162861 0.943158
6.46902 -38.6446 79.5411 0.370764 0.137465 0.918497
7.62036 -39.2673 79.1041 0.442778 0.0847715 0.892602
8.61162 -40.1511 78.7062 0.485842 0.104798 0.865056
9.24423 -41.0117 78.3782 0.543418 0.0784914 0.835784
9.79763 -41.9984 78.1005 0.548784 0.0485114 0.834553
10.252 -43.3374 77.8778 0.55067 0.0484553 0.833315
10.2871 -44.5767 77.9863 0.545342 0.0984923 0.832407
9.86898 -45.8097 78.3777 0.525357 0.0863409 0.84649
9.10256 -47.0192 78.9471 0.498993 0.0668428 0.864021
8.44822 -47.661 79.3798 0.501892 0.0708392 0.862025
7.67977 -48.159 79.8462 0.484198 0.0643818 0.872586
6.76932 -48.5657 80.3491 0.412175 0.0517997 0.909567
5.2879 -48.9614 81.0204 0.391455 0.0751179 0.916882
4.22158 -49.1477 81.4021 0.273145 0.0941799 0.956219
3.22204 -49.2417 81.6146 0.187747 0.0796588 0.978957
2.08692 -49.2706 81.8218 0.0862495 0.0700809 0.991564
0.397716 -49.2656 81.8663 -0.0291882 0.0335804 0.997414
-1.24032 -49.2395 81.68 -0.119616 0.0551411 0.991288
-2.52446 -49.189 81.5015 -0.170385 0.0795837 0.981189
-3.59431 -49.0517 81.1812 -0.376543 0.0496967 0.925063
-5.1967 -48.4548 80.4813 -0.387492 0.0574146 0.920083
-6.58826 -47.5505 79.7527 -0.454232 0.0596276 0.888222
-7.63362 -46.387 79.1738 -0.506919 0.0328701 0.859975
-8.0435 -45.5237 78.8677 -0.546173 0.0269226 0.837188
-8.73718 -44.1723 78.3904 -0.52488 0.0466286 0.849226
-9.29552 -43.1782 77.9617 -0.543238 0.063036 0.837207
-10.086 -41.9121 77.3163 -0.573599 0.0903996 0.814087
-10.5557 -40.9698 76.8681 -0.575622 0.0991521 0.811682
-10.936 -39.8964 76.4789 -0.574041 0.0824596 0.814664
-11.1171 -38.7932 76.2427 -0.576436 0.0760596 0.813592
-10.776 -36.9332 76.3147 -0.541966 0.106517 0.832119
-9.56178 -35.7076 76.8955 -0.494306 0.0777389 0.865722
-8.51855 -35.5353 77.4523 -0.476645 0.0886592 0.874613
-7.31248 -35.7958 78.1725 -0.478822 0.175238 0.859745
-6.38571 -36.1344 78.7409 -0.378941 0.17123 0.904937
-4.98127 -36.7632 79.2814 -0.301036 0.137801 0.943603
-4.0589 -37.013 79.6126 -0.29691 0.140396 0.944527
-2.55815 -37.1157 80.0711 -0.272472 0.11979 0.954677
-2.44125 -37.1227 80.1054 -0.204211 0.151169 0.964187
-2.69906 -36.4305 79.9397 -0.202373 0.155905 0.964037
-3.78704 -36.3364 79.5974 -0.29691 0.140396 0.944527
-4.84869 -36.0085 79.2102 -0.281986 0.161165 0.945531
-5.97105 -35.5214 78.7768 -0.298243 0.149809 0.94266
-6.87233 -35.1346 78.2556 -0.460765 0.199212 0.864873
-8.21864 -34.7856 77.5323 -0.463598 0.105251 0.879768
-9.34966 -34.7863 76.924 -0.473243 0.0859713 0.876718
-10.3807 -35.2671 76.4053 -0.515173 0.0775498 0.852747
-11.0151 -35.9841 76.0577 -0.552875 0.0821054 0.829206
-11.5437 -37.1183 75.791 -0.57317 0.068803 0.81653
-11.7377 -38.2811 75.7588 -0.597537 0.0485222 0.79948
-11.644 -39.7618 75.9626 -0.62916 0.102204 0.770527
-11.2681 -40.9472 76.36 -0.575619 0.0993187 0.811664
-10.8414 -41.8722 76.7744 -0.57606 0.0977057 0.811547
-10.3255 -42.7562 77.2342 -0.573258 0.0833332 0.815124
-9.77906 -43.6276 77.6699 -0.577518 0.0256967 0.815962
-8.99137 -45.0514 78.2459 -0.552069 0.0187387 0.833488
-8.37076 -46.4001 78.6885 -0.550472 0.0348052 0.834128
-7.83252 -47.3688 79.0814 -0.533095 0.0581121 0.843479
-7.00088 -48.1858 79.6064 -0.454887 0.0913422 0.885849
-6.11195 -48.794 80.1035 -0.397873 0.0520537 0.915962
-4.98565 -49.3832 80.6259 -0.397593 0.0481763 0.916289
-4.0972 -49.7077 81.015 -0.377618 0.0625695 0.923845
-3.17434 -49.873 81.3988 -0.336656 0.0307955 0.939769
-2.02637 -49.9353 81.6091 -0.140211 0.0496534 0.988875
-0.684723 -49.9652 81.7871 -0.102825 0.0360593 0.993727
0.542979 -49.9802 81.8909 -0.0830399 0.0177776 0.996387
1.7981 -49.9874 81.8635 0.0662204 0.0237181 0.99656
2.87582 -49.9634 81.7195 0.183178 0.0463034 0.981989
3.91297 -49.9011 81.5172 0.239665 0.0349616 0.968982
5.30538 -49.69 81.0672 0.321704 0.0503458 0.945457
6.29847 -49.4496 80.6209 0.430829 0.0443108 0.901345
7.63935 -49.0103 79.9198 0.481734 0.0506427 0.874852
8.52221 -48.5067 79.404 0.48291 0.0578094 0.873736
9.2574 -47.9048 78.9287 0.501892 0.0708392 0.862025
9.87528 -47.1909 78.5053 0.608043 0.0327947 0.79294
10.6577 -45.6938 77.843 0.612751 0.0520557 0.788559
10.9377 -44.7451 77.5629 0.623948 0.0638901 0.778609
10.9702 -43.5255 77.4138 0.548362 0.0736089 0.832608
10.5993 -42.1636 77.5726 0.561326 0.0572305 0.825614
10.0859 -41.1479 77.8489 0.549306 0.0672681 0.832772
9.54202 -40.2325 78.1165 0.536445 0.0747615 0.840616
8.91198 -39.4398 78.4437 0.520058 0.0979349 0.848208
7.74992 -38.5226 78.9533 0.453637 0.108798 0.884509
6.79289 -38.0173 79.3166 0.387053 0.14737 0.909956
5.13033 -37.3522 79.812 0.294346 0.166615 0.941042
4.054 -36.9303 80.066 0.211856 0.160572 0.961235
2.66656 -36.6693 80.2193 0.145733 0.182048 0.97231
1.59257 -36.6499 80.3081 0.0352549 0.198904 0.979265
0.306209 -36.6552 80.3577 -0.0347687 0.188618 0.978938
-0.718465 -36.5624 80.2297 -0.11241 0.189139 0.975375
-1.8001 -36.4795 80.0736 -0.131154 0.184542 0.974025
-2.02742 -36.4625 80.0388 -0.135076 0.183039 0.973782
-2.00726 -35.7905 79.9189 -0.137122 0.17541 0.974899
-0.403925 -35.8823 80.1237 -0.0927393 0.193633 0.976609
1.02702 -35.9585 80.2012 0.0407797 0.184403 0.982004
2.27377 -35.882 80.1244 0.0892193 0.200054 0.975068
4.09705 -36.1674 79.9272 0.215277 0.164794 0.959507
5.02977 -36.563 79.708 0.289958 0.161048 0.943392
5.97915 -36.9383 79.4757 0.340356 0.154817 0.926351
7.14196 -37.4189 79.0574 0.402878 0.155431 0.901959
8.42224 -38.1254 78.5569 0.478408 0.112232 0.870547
9.3214 -38.8365 78.123 0.520058 0.0979349 0.848208
10.0162 -39.7431 77.7678 0.542069 0.0788997 0.83662
10.5604 -40.6801 77.4906 0.563155 0.0629727 0.823948
11.0622 -41.5769 77.2139 0.567007 0.0613063 0.821428
11.4863 -42.7477 76.9822 0.627566 0.0313394 0.777927
11.6087 -44.2713 76.9667 0.623418 0.0530078 0.780089
11.4233 -45.4864 77.2331 0.64727 0.0583942 0.75988
11.0652 -46.3822 77.5718 0.612751 0.0520557 0.788559
10.5518 -47.3667 77.9938 0.608043 0.0327947 0.79294
10.0165 -48.1264 78.4372 0.549027 0.0220619 0.835502
9.35938 -48.8206 78.889 0.547125 0.0331113 0.836333
8.46841 -49.4058 79.4736 0.491866 0.0355981 0.869943
7.51749 -49.8791 80.0285 0.491424 0.0398779 0.86999
6.50017 -50.1423 80.5585 0.432042 0.0423956 0.900853
5.59297 -50.3731 81.0031 0.374053 0.0450962 0.924302
4.4553 -50.5582 81.3648 0.277157 0.014008 0.960687
2.88566 -50.6722 81.7495 0.142654 0.0181124 0.988477
1.8595 -50.702 81.8546 0.100813 -0.00599315 0.994886
-0.0542689 -50.6857 81.8541 -0.0800822 0.0154932 0.99666
-1.4319 -50.6677 81.7292 -0.127755 0.0460288 0.99069
-2.66959 -50.6259 81.5534 -0.140266 0.0508864 0.988805
-3.74055 -50.5588 81.2177 -0.34045 0.0296284 0.938399
-4.70846 -50.3079 80.7993 -0.405953 0.050547 0.912495
-5.62119 -49.9231 80.3765 -0.397507 0.0445802 0.916515
-6.46536 -49.4619 79.988 -0.397634 0.0483465 0.916262
-7.35633 -48.857 79.4811 -0.487016 0.0739486 0.870256
-8.45188 -47.8644 78.754 -0.517256 0.084166 0.851682
-9.10774 -46.2632 78.1978 -0.549822 0.0927432 0.829075
-9.69055 -45.0913 77.771 -0.566159 0.019947 0.824043
-10.1697 -44.2038 77.4103 -0.574393 0.024726 0.8182
-10.7816 -43.215 76.8996 -0.631596 0.0246966 0.774904
-11.3296 -42.2968 76.4201 -0.637266 0.0271709 0.770161
-11.9563 -40.9138 75.8459 -0.662105 0.0370702 0.747856
-12.237 -39.9466 75.5029 -0.629354 0.104228 0.770095
-12.3489 -38.6868 75.2843 -0.622938 0.0260527 0.781835
-12.2882 -37.5136 75.2941 -0.60287 0.0510892 0.795399
-11.9554 -36.302 75.4293 -0.581937 0.0704244 0.81017
-11.2316 -35.0608 75.8201 -0.571439 0.0730492 0.817278
-10.475 -34.373 76.2559 -0.524672 0.0956983 0.845413
-9.56376 -34.0163 76.7239 -0.474856 0.106815 0.873557
-8.54425 -33.9733 77.2653 -0.466907 0.104517 0.878107
-7.57927 -34.1228 77.7892 -0.442339 0.105269 0.890422
-6.15708 -34.6383 78.5201 -0.441466 0.151614 0.882774
-5.06093 -35.1321 78.9921 -0.265946 0.172998 0.948334
-4.0002 -35.5578 79.3764 -0.298401 0.194695 0.93437
-2.94438 -35.7397 79.745 -0.24319 0.208788 0.945923
-2.4659 -35.7686 79.8509 -0.166682 0.201433 0.964327
-2.2019 -35.1158 79.7502 -0.197935 0.226705 0.953638
-3.19479 -35.0365 79.5239 -0.249941 0.211953 0.943367
-4.5868 -34.5461 79.0178 -0.263692 0.171601 0.94922
-5.57069 -34.112 78.6724 -0.269137 0.142725 0.952468
-6.69018 -33.6294 78.153 -0.423876 0.100615 0.90011
-7.59111 -33.3461 77.6878 -0.4553 0.127142 0.88109
-8.90099 -33.1645 76.9754 -0.461694 0.1169 0.879299
-9.85811 -33.2562 76.4675 -0.492165 0.118871 0.862162
-10.7479 -33.6654 75.9969 -0.507267 0.12193 0.85312
-11.5554 -34.3356 75.5423 -0.559908 0.0691557 0.825548
-12.115 -35.161 75.2146 -0.590412 0.0511401 0.805013
-12.5561 -36.085 74.9398 -0.628628 0.0793732 0.773645
-12.9 -37.5012 74.7723 -0.656687 0.0394575 0.753129
-12.9321 -39.1361 74.8285 -0.663271 0.0352996 0.74751
-12.8046 -40.1302 75.0031 -0.68325 0.0435681 0.728883
-12.4666 -41.1799 75.3829 -0.684385 0.0452413 0.727716
-11.8989 -42.5208 75.955 -0.64013 0.0222997 0.767911
-11.3809 -43.41 76.409 -0.643439 0.0168859 0.765311
-10.7236 -44.4311 76.9828 -0.638132 0.028288 0.769399
-10.0322 -45.7978 77.5581 -0.561456 0.0307774 0.826932
-9.49269 -47.1188 78.0239 -0.580802 0.10422 0.807321
-9.15159 -48.2138 78.366 -0.515227 0.0865381 0.852669
-8.4781 -48.8681 78.8409 -0.512097 0.0841644 0.854782
-7.74411 -49.4898 79.3177 -0.490165 0.0730304 0.86856
-6.43893 -50.3384 80.0421 -0.423129 0.0307825 0.905003
-5.20757 -50.9511 80.6128 -0.406257 0.0502055 0.912378
-4.2893 -51.2452 81.0387 -0.387966 0.0472007 0.920106
-3.33809 -51.344 81.3444 -0.293388 0.0554728 0.95438
-2.01692 -51.3414 81.6799 -0.141086 0.0429523 0.989063
-0.88937 -51.4047 81.8259 -0.111532 0.0429404 0.992797
0.148231 -51.3991 81.9024 -0.0670463 0.0486099 0.996563
1.18194 -51.4285 81.9293 0.0589604 0.00299475 0.99699
2.21874 -51.4065 81.82 0.104254 0.0242834 0.994254
3.2582 -51.3724 81.705 0.201842 0.00610875 0.977679
4.23652 -51.3376 81.4513 0.253978 0.0454234 0.965934
5.57376 -51.0985 81.0421 0.358999 0.0364432 0.929898
7.15739 -50.7804 80.2712 0.436894 0.0378702 0.8987
8.06769 -50.4867 79.7457 0.498685 0.0403311 0.865838
8.90264 -50.009 79.2484 0.522091 0.0344105 0.851633
9.93552 -49.2345 78.5226 0.575694 0.0333484 0.816924
10.7675 -48.2486 77.8792 0.617553 0.0402893 0.785474
11.4583 -47.069 77.2948 0.631563 0.0237831 0.774281
11.816 -46.1675 76.9357 0.650908 0.0444393 0.757855
12.1082 -45.2282 76.6299 0.653765 0.0375659 0.75572
12.1933 -43.5727 76.4456 0.633517 0.0504112 0.772032
12.0582 -42.4093 76.5043 0.632066 0.0323986 0.774229
11.7302 -41.4494 76.7284 0.645866 0.0483346 0.761919
11.1949 -40.497 77.0356 0.591824 0.0811696 0.801963
10.7139 -39.6328 77.3042 0.568998 0.066179 0.81906
9.74638 -38.209 77.788 0.521761 0.0992605 0.846998
8.38767 -37.2983 78.4689 0.478698 0.113152 0.870291
7.11698 -36.6623 78.961 0.393778 0.109793 0.912623
5.90174 -36.1742 79.3744 0.317633 0.159481 0.934221
4.99118 -35.7824 79.5871 0.288984 0.159649 0.943928
3.8373 -35.3194 79.8091 0.127075 0.198761 0.971772
2.75384 -35.1449 79.9136 0.125043 0.196973 0.972402
1.42389 -35.2194 80.0376 0.0539443 0.196635 0.978984
-0.273361 -35.1838 80.0074 -0.0843099 0.175726 0.980821
-1.85285 -35.0993 79.8189 -0.168956 0.197348 0.964708
-2.31378 -34.4123 79.5642 -0.206283 0.177129 0.962325
-3.4652 -34.3131 79.2897 -0.249941 0.211953 0.943367
-4.39156 -33.862 78.9628 -0.261551 0.146835 0.953955
-5.31612 -33.3889 78.6345 -0.269038 0.148962 0.95154
-6.39705 -32.9093 78.1865 -0.352015 0.150892 0.923233
-7.37853 -32.6792 77.6903 -0.443194 0.138736 0.885613
-8.2134 -32.3205 77.2095 -0.448171 0.142084 0.882584
-9.38528 -32.4181 76.6136 -0.473796 0.115028 0.873082
-10.4559 -32.6728 76.0337 -0.502694 0.105069 0.858055
-11.3501 -33.1365 75.5653 -0.511444 0.104734 0.852859
-12.2089 -34.0807 75.0647 -0.568134 0.0767666 0.819342
-12.7737 -35.1341 74.7033 -0.612255 0.0382481 0.789726
-13.2621 -36.1269 74.3619 -0.633781 0.0670601 0.770419
-13.5394 -37.3428 74.2067 -0.658385 0.0351622 0.751838
-13.5587 -38.4161 74.2385 -0.664566 0.03235 0.746511
-13.4529 -39.505 74.3765 -0.667277 0.0311493 0.744157
-13.1837 -40.8099 74.6869 -0.678009 0.0406255 0.733883
-12.7994 -41.9303 75.1161 -0.684553 0.0449161 0.727578
-12.3842 -42.9898 75.5513 -0.670128 -0.0106761 0.742146
-11.7638 -44.2516 76.087 -0.671813 0.00309684 0.740555
-11.1846 -45.0097 76.6166 -0.654848 0.0275698 0.755094
-10.6329 -46.1455 77.1422 -0.645168 0.0595524 0.761711
-10.2222 -47.0835 77.4937 -0.586221 0.108257 0.802886
-9.86621 -48.4332 77.8757 -0.626463 0.0459311 0.778074
-9.32256 -49.279 78.3223 -0.573203 0.0329745 0.818716
-8.50879 -49.7688 78.9067 -0.501609 0.0757429 0.861694
-7.63816 -50.461 79.4236 -0.48377 0.0385336 0.874347
-6.80384 -51.0947 79.872 -0.449084 0.0157316 0.893351
-5.89847 -51.5128 80.3396 -0.424694 0.0506473 0.903629
-4.84533 -51.9399 80.8398 -0.406305 0.0634286 0.911533
-3.69172 -52.0243 81.2746 -0.291888 0.0545667 0.954894
-2.51474 -52.1414 81.6173 -0.249221 0.00858027 0.968292
-1.47771 -52.1497 81.7937 -0.113175 0.0546132 0.991771
0.210098 -52.3094 81.9489 -0.0156793 0.0360566 0.997822
1.32241 -52.2692 81.9212 0.033677 0.00770714 0.99925
2.52132 -52.1211 81.8059 0.113845 0.0191716 0.993242
4.09183 -52.0549 81.5138 0.23751 0.022813 0.971014
5.48047 -51.9703 81.1167 0.35671 0.052341 0.929643
6.36137 -51.7166 80.6934 0.422295 0.0333377 0.905837
7.34078 -51.5414 80.21 0.467826 0.0370521 0.882472
8.18727 -51.3251 79.7137 0.504976 0.0226548 0.862824
9.04687 -50.7823 79.191 0.499047 0.0342433 0.86587
10.1756 -49.9888 78.3814 0.575361 0.0048536 0.817729
10.8643 -49.3566 77.8301 0.64063 -0.0048395 0.767758
11.4114 -48.5986 77.3589 0.642971 0.00723056 0.765818
11.8998 -47.8743 76.9506 0.662916 0.0201476 0.747675
12.2699 -46.7086 76.5647 0.664679 0.0389645 0.746112
12.7562 -44.9551 76.0542 0.65924 0.0294722 0.751354
12.8488 -43.7841 75.9113 0.661225 0.0454808 0.748801
12.6538 -42.374 76.0019 0.656252 0.0454304 0.753063
12.3493 -41.305 76.1943 0.646216 0.0475362 0.761673
11.8862 -40.4622 76.519 0.593848 0.0812271 0.800465
11.0585 -38.9388 77.0087 0.568998 0.066179 0.81906
10.5163 -38.0984 77.2757 0.546701 0.0894815 0.832532
9.71172 -37.2901 77.7029 0.519602 0.0965794 0.848703
8.82569 -36.7767 78.1593 0.496989 0.0963922 0.862385
7.85735 -36.1478 78.5826 0.428027 0.10966 0.89616
6.82551 -35.5972 78.9283 0.351936 0.160835 0.922087
5.86753 -35.3787 79.2504 0.319011 0.158121 0.933929
4.93341 -34.9106 79.453 0.26807 0.189636 0.944551
3.99299 -34.5649 79.6329 0.127703 0.201356 0.971157
2.49669 -34.3948 79.795 0.127014 0.199371 0.971652
1.37756 -34.4077 79.885 0.0771017 0.168463 0.982679
0.0312128 -34.3457 79.8802 -0.0715399 0.174628 0.982008
-1.00873 -34.2828 79.7791 -0.101089 0.190594 0.97626
-1.42382 -34.2705 79.7279 -0.159554 0.190163 0.967512
2.35891 -43.465 81.2602 0.112135 0.111555 0.987251
2.39784 -43.6104 81.2712 0.105274 0.0994954 0.98942
2.20474 -43.6107 81.2903 0.0981004 0.101612 0.989975
