-3.77513 -42.837 82.03 -0.269531 0.0770836 0.959902
-3.04667 -43.5411 82.2867 -0.273844 0.108798 0.954978
-1.79353 -43.4388 82.54 -0.181361 0.124773 0.975469
-1.21542 -42.7715 82.5625 -0.175872 0.109334 0.978192
-2.69992 -43.0316 82.3312 -0.207637 0.0964976 0.972633
-3.73021 -42.6353 82.0265 -0.259257 0.0892846 0.961536
-3.47953 -41.9522 82.0191 -0.247991 0.101685 0.96341
-1.86627 -42.0489 82.3802 -0.168545 0.0946441 0.98114
-0.748506 -42.1022 82.5611 -0.06064 0.121536 0.986989
0.759447 -42.0528 82.5159 0.0282537 0.113286 0.99316
2.0208 -42.1302 82.4983 0.0505766 0.12327 0.990626
3.03291 -42.1864 82.4228 0.0748839 0.109569 0.991086
4.24401 -42.4548 82.2413 0.233343 0.105649 0.964826
5.25531 -42.9027 81.9515 0.31722 0.0898669 0.944084
5.32926 -44.0611 82.009 0.289049 0.0894132 0.952634
4.36935 -44.2892 82.3252 0.261265 0.0597809 0.962631
2.87038 -44.4017 82.6889 0.229962 0.0733184 0.970434
1.5214 -44.3444 82.7433 0.0616334 0.131979 0.986987
0.13602 -44.3196 82.7947 0.000417492 0.186 0.98255
-0.887689 -44.3118 82.814 -0.0761705 0.115047 0.985167
-2.36133 -44.2788 82.5496 -0.172978 0.137372 0.975299
-3.68879 -44.1035 82.176 -0.288998 0.137701 0.947373
-4.51135 -43.4664 81.8726 -0.338019 0.0789296 0.935183
-4.98036 -42.5829 81.5851 -0.400144 0.0853889 0.912451
-4.33233 -41.9226 81.7921 -0.299477 0.128207 0.944247
-3.90648 -41.9391 81.9073 -0.251927 0.11154 0.961241
-4.12515 -41.2244 81.7589 -0.255323 0.120617 0.959302
-2.6784 -41.3023 82.1551 -0.264906 0.107001 0.958194
-1.64441 -41.32 82.3255 -0.146349 0.128011 0.980915
-0.213552 -41.3202 82.4572 0.0245905 0.116067 0.992936
1.26114 -41.3169 82.4286 0.0212443 0.097081 0.995008
2.59801 -41.4205 82.3764 0.0718434 0.0940227 0.992956
3.91008 -41.6123 82.2209 0.170957 0.101794 0.979955
4.90613 -41.9373 81.9757 0.300507 0.103484 0.947981
5.79235 -42.3897 81.7222 0.31722 0.0898669 0.944084
6.94095 -43.5791 81.3595 0.406815 0.0655527 0.910983
6.02908 -44.5966 81.8732 0.363687 0.101747 0.920877
5.12507 -44.9374 82.168 0.271155 0.109275 0.956309
3.61604 -45.097 82.5686 0.221723 0.0963154 0.97034
2.61907 -45.119 82.7807 0.0584789 0.13194 0.98728
1.19195 -45.048 82.9117 0.102663 0.187609 0.976863
0.0719514 -45.0315 82.9293 -0.00101055 0.185747 0.982596
-1.72929 -45.0345 82.7672 -0.149697 0.106414 0.982365
-2.82097 -45.0144 82.5712 -0.230481 0.136974 0.961608
-3.77013 -44.9152 82.2631 -0.356329 0.0575235 0.932587
-4.61719 -44.4908 81.9112 -0.379358 0.0608603 0.922951
-5.33536 -43.512 81.5112 -0.406262 0.0821901 0.910052
-5.79164 -42.5488 81.2202 -0.407385 0.0825669 0.909516
-6.11122 -41.2905 80.9439 -0.453124 0.0929399 0.886587
-5.14631 -41.2153 81.3869 -0.376105 0.112793 0.918673
-4.20521 -41.2213 81.7372 -0.299477 0.128207 0.944247
-4.06373 -40.5265 81.6846 -0.301103 0.133117 0.943105
-5.27657 -40.4646 81.2251 -0.344569 0.144369 0.927584
-6.41816 -40.335 80.6891 -0.451757 0.0881912 0.88777
-7.09236 -41.0312 80.4124 -0.4556 0.0893275 0.885688
-6.7165 -42.1348 80.7233 -0.445599 0.100773 0.889539
-6.13085 -43.5101 81.1548 -0.422805 0.0832846 0.90222
-5.61717 -44.4186 81.4635 -0.419495 0.0670875 0.905275
-4.99572 -45.1823 81.7931 -0.400957 0.0638065 0.913872
-3.90688 -45.674 82.2576 -0.356329 0.0575235 0.932587
-2.87354 -45.7552 82.6583 -0.296823 0.0746575 0.949098
-1.76256 -45.753 82.8157 -0.136229 0.072593 0.988014
-0.644882 -45.7457 82.9574 -0.0718522 0.0799317 0.994207
0.854578 -45.7584 83.0657 -0.0350085 0.132546 0.988522
1.97383 -45.7855 82.9444 0.154587 0.07886 0.984776
3.03773 -45.826 82.7718 0.190911 0.0772247 0.97785
4.01314 -45.7815 82.5456 0.218859 0.0927263 0.971337
5.01486 -45.7122 82.2873 0.254405 0.111656 0.960544
6.41272 -45.3095 81.7554 0.428739 0.0773257 0.899529
7.53787 -44.3888 81.1328 0.410269 0.0472634 0.910739
7.789 -43.4661 80.9643 0.464836 0.098056 0.877777
6.89626 -42.3653 81.2679 0.39523 0.0940966 0.913607
5.66563 -41.4902 81.6773 0.347644 0.0978841 0.931912
4.5255 -41.0289 81.9796 0.289225 0.117307 0.950046
3.48313 -40.781 82.2118 0.135308 0.114299 0.983574
2.29047 -40.6395 82.3216 0.105756 0.135646 0.985091
1.061 -40.5823 82.3582 0.0130251 0.0994537 0.994956
-0.265611 -40.5726 82.3702 0.0158865 0.108544 0.993892
-1.65084 -40.5931 82.2377 -0.130074 0.10114 0.986332
-2.946 -40.5764 82.0074 -0.272239 0.0922303 0.957797
-3.7894 -40.5434 81.7606 -0.269985 0.107237 0.956623
-3.45022 -39.8605 81.7971 -0.307667 0.121056 0.9428
-4.4802 -39.8122 81.4171 -0.344708 0.148125 0.92695
-6.09259 -39.6053 80.7623 -0.367252 0.157443 0.916699
-7.02005 -39.4005 80.2896 -0.476021 0.092164 0.874156
-7.87122 -39.4581 79.8012 -0.505433 0.095684 0.857536
-8.31164 -40.3995 79.644 -0.515719 0.104415 0.850251
-7.78597 -41.421 80.0715 -0.498221 0.102773 0.860934
-7.37656 -42.368 80.417 -0.448142 0.100609 0.888283
-6.85907 -43.562 80.8015 -0.440835 0.0827053 0.893769
-6.41813 -44.449 81.0944 -0.42903 0.07147 0.90039
-5.85925 -45.3757 81.4256 -0.408104 0.0699926 0.910174
-5.07787 -46.1027 81.8205 -0.407448 0.0719113 0.910293
-4.12214 -46.4217 82.2436 -0.366101 0.100603 0.925121
-2.48781 -46.4883 82.7845 -0.180007 0.0698769 0.979433
-1.04855 -46.4632 82.9664 -0.130586 0.0837987 0.98781
0.149475 -46.4674 83.0743 -0.0727859 0.0860835 0.993623
2.0124 -46.5117 82.9959 0.150374 0.0864791 0.984783
3.70528 -46.5134 82.685 0.201877 0.0704717 0.976432
4.82541 -46.4726 82.4258 0.254405 0.111656 0.960544
6.03282 -46.2639 82.0068 0.396806 0.110624 0.911179
6.88923 -45.8871 81.5698 0.463654 0.0834127 0.882081
7.70124 -45.2702 81.0758 0.502319 0.0455474 0.863159
8.32797 -44.5344 80.6821 0.512502 0.0269777 0.858262
8.43241 -43.0416 80.5062 0.543506 0.0838347 0.835208
7.37451 -41.8126 80.9912 0.50974 0.0820571 0.85576
6.35159 -41.0569 81.3433 0.381154 0.110347 0.917901
5.48184 -40.6026 81.6198 0.321354 0.14251 0.935896
4.13068 -40.1589 81.982 0.281571 0.154112 0.946841
2.97492 -39.9761 82.154 0.112654 0.145972 0.982853
1.77065 -39.8909 82.2774 0.0685037 0.114164 0.990108
0.618293 -39.8314 82.2832 0.00746302 0.124436 0.9922
-0.742712 -39.8477 82.2585 -0.0927652 0.168039 0.981356
-1.88079 -39.8698 82.1332 -0.130887 0.10237 0.986097
-3.44392 -39.8607 81.799 -0.273599 0.0859438 0.957983
-3.44777 -39.8607 81.7979 -0.276743 0.0898037 0.956721
-3.58508 -39.1403 81.6292 -0.331095 0.155075 0.930766
-5.06812 -39.0517 81.0766 -0.355673 0.153696 0.921794
-5.98493 -38.8928 80.6822 -0.368705 0.158969 0.915851
-6.96783 -38.6594 80.2308 -0.485485 0.138964 0.862621
-8.27782 -38.3964 79.4064 -0.516075 0.124082 0.847507
-9.18487 -38.547 78.9083 -0.492893 0.116533 0.86225
-9.36377 -39.6255 78.8903 -0.549432 0.0904174 0.830287
-8.74063 -41.0801 79.4785 -0.507681 0.109583 0.854441
-8.17131 -42.2391 79.946 -0.501838 0.102689 0.858844
-7.79998 -43.1186 80.2672 -0.517554 0.0786376 0.851493
-7.32621 -44.2392 80.6179 -0.45519 0.0630701 0.888157
-6.67148 -45.4272 81.0483 -0.456034 0.0770466 0.886618
-6.11784 -46.2125 81.363 -0.409201 0.0715062 0.909506
-5.227 -46.9467 81.8327 -0.407994 0.0857592 0.908948
-4.05871 -47.1806 82.3499 -0.375671 0.0885908 0.922404
-2.87612 -47.2244 82.73 -0.236103 0.0498794 0.970436
-1.75364 -47.2006 82.9371 -0.160005 0.0543836 0.985519
-0.711463 -47.1789 83.0616 -0.0973971 0.0680407 0.992849
1.07475 -47.2046 83.2048 0.0373661 0.0824391 0.989904
2.99464 -47.25 82.9072 0.169678 0.107472 0.979409
4.09672 -47.2331 82.6713 0.213735 0.0986843 0.971887
5.46296 -47.1274 82.3376 0.333508 0.0820793 0.934823
6.64701 -46.8442 81.7877 0.439656 0.0628498 0.895306
7.59979 -46.2771 81.2175 0.500089 0.0730229 0.86289
8.60463 -45.4445 80.5727 0.49586 0.0674161 0.865782
9.20081 -44.6875 80.172 0.525042 0.0838793 0.846156
9.37854 -43.511 79.9303 0.555686 0.0843545 0.827102
8.89856 -42.5099 80.1492 0.549186 0.0849478 0.831344
8.2988 -41.7324 80.4456 0.503895 0.0504412 0.86229
7.29399 -40.8173 80.9071 0.432101 0.11937 0.89389
6.41525 -40.2435 81.219 0.362355 0.127769 0.922839
5.31905 -39.7561 81.547 0.321425 0.142096 0.935932
3.71349 -39.3205 81.9494 0.268575 0.167245 0.948625
2.63931 -39.1728 82.0724 0.112099 0.146671 0.982813
0.797904 -39.0876 82.1886 0.0263798 0.149025 0.987986
-0.93705 -39.1254 82.1167 -0.0947675 0.162747 0.982046
-2.54363 -39.1475 81.9557 -0.114709 0.186679 0.975318
-2.96218 -39.1442 81.8505 -0.323827 0.167371 0.931098
-2.80644 -38.428 81.7657 -0.223938 0.193913 0.950188
-1.4707 -38.4143 81.9385 -0.107513 0.185467 0.976604
-0.221715 -38.3589 82.0525 -0.0590254 0.199866 0.977462
1.3068 -38.3805 82.0407 0.0460924 0.173392 0.983774
2.55396 -38.4176 81.9491 0.0902948 0.17575 0.980284
4.11819 -38.6596 81.719 0.270433 0.165922 0.948333
5.19506 -38.9412 81.4605 0.280447 0.166328 0.945299
6.12634 -39.2997 81.1842 0.33455 0.114565 0.935388
7.00254 -39.7493 80.9048 0.435195 0.138141 0.88947
8.18137 -40.5919 80.4481 0.468163 0.0849491 0.877964
8.83418 -41.2923 80.0935 0.562563 0.0628601 0.824361
9.54845 -42.2496 79.691 0.552677 0.0748904 0.830024
10.0472 -43.2918 79.4574 0.555121 0.0875889 0.827135
10.0137 -44.6106 79.6222 0.552009 0.0895064 0.82902
9.58961 -45.4358 80.005 0.525042 0.0838793 0.846156
8.76859 -46.2669 80.5427 0.497388 0.0667802 0.864953
7.89449 -46.9699 81.1052 0.500712 0.0727385 0.862552
7.09249 -47.4609 81.6102 0.466353 0.0597593 0.881602
6.01664 -47.7968 82.1205 0.410082 0.0465105 0.910852
5.01056 -47.9114 82.5396 0.277669 0.0508344 0.955864
3.91338 -47.9612 82.7826 0.210684 0.0949513 0.972932
2.84631 -47.9709 82.9849 0.16545 0.0692023 0.983781
1.19396 -47.9279 83.2427 0.138117 0.0619846 0.988366
0.149782 -47.9084 83.1861 -0.0856707 0.0684033 0.993973
-1.29692 -47.9097 83.048 -0.107715 0.0683998 0.991826
-2.4306 -47.9444 82.8792 -0.196426 0.0737625 0.976862
-3.50123 -47.9499 82.6156 -0.263756 0.0467016 0.962997
-4.52577 -47.9115 82.2161 -0.387919 0.0685349 0.919136
-5.46072 -47.7403 81.8029 -0.399786 0.0829149 0.912806
-6.36595 -47.0521 81.3142 -0.459885 0.0381707 0.887157
-6.98331 -46.2589 80.9447 -0.505058 0.0508385 0.861554
-7.49785 -45.378 80.6005 -0.503689 0.0535238 0.862118
-8.23557 -43.7879 80.0347 -0.529019 0.0628889 0.846212
-8.90491 -42.2597 79.5106 -0.542175 0.056608 0.838302
-9.36062 -41.3727 79.1208 -0.533924 0.101074 0.839469
-9.80505 -40.5548 78.723 -0.552392 0.111468 0.826096
-10.1878 -39.0418 78.2977 -0.567662 0.0701321 0.820108
-9.81101 -37.8761 78.4486 -0.575252 0.100489 0.811544
-8.90255 -37.5259 78.9229 -0.502699 0.175245 0.846511
-7.61908 -37.7432 79.7112 -0.495435 0.14498 0.855934
-6.59339 -38.0021 80.311 -0.414241 0.140411 0.897276
-4.79832 -38.3656 81.0653 -0.364624 0.139654 0.920406
-3.67922 -38.4091 81.463 -0.319379 0.18159 0.930066
-3.16579 -38.4252 81.6425 -0.318598 0.180463 0.930552
-2.82279 -37.703 81.6165 -0.224643 0.188686 0.951348
-1.16558 -37.695 81.8263 -0.106405 0.202329 0.973482
0.613971 -37.6403 81.9095 -0.00457544 0.242655 0.970086
1.81478 -37.6385 81.8746 0.0896451 0.183054 0.978988
2.8752 -37.7092 81.7877 0.0947329 0.186888 0.977801
4.06806 -37.8971 81.5993 0.259549 0.180756 0.948491
5.12244 -38.1545 81.3435 0.270985 0.166295 0.94811
6.56035 -38.6933 80.9546 0.366928 0.159558 0.915696
7.45888 -39.19 80.5799 0.438142 0.156403 0.885195
8.40406 -39.8504 80.2287 0.451875 0.159074 0.877642
9.14818 -40.6115 79.8273 0.562447 0.0629716 0.824432
10.0929 -41.8033 79.2873 0.553469 0.0749501 0.829491
10.7012 -43.1017 78.9651 0.599661 0.0688821 0.796616
10.7806 -44.1087 79.0285 0.610962 0.0971983 0.785669
10.4222 -45.4769 79.451 0.601177 0.0751204 0.795576
9.61056 -46.4715 80.0707 0.514837 0.0407772 0.85595
8.87472 -47.1181 80.5352 0.522883 0.0552431 0.850227
7.66403 -47.992 81.3347 0.495773 0.0841223 0.864368
6.72207 -48.4139 81.8277 0.435664 0.0323008 0.899526
5.60403 -48.6046 82.3267 0.346478 0.00336261 0.938048
4.55055 -48.6604 82.7123 0.276605 0.0491835 0.956261
3.48141 -48.6849 82.9262 0.167886 0.070485 0.983283
2.08263 -48.6719 83.1603 0.151042 0.0553156 0.986822
0.940616 -48.6496 83.3126 0.0199886 0.0640037 0.991672
-0.644311 -48.6257 83.1664 -0.101709 0.0617724 0.992731
-1.99602 -48.6484 82.9905 -0.13075 0.0323187 0.990888
-3.18366 -48.6843 82.7332 -0.28511 0.0299414 0.958024
-4.56965 -48.6604 82.2516 -0.390469 0.0663225 0.918224
-5.71682 -48.507 81.7032 -0.452303 0.0227403 0.891542
-6.60088 -47.896 81.232 -0.450296 0.0367498 0.89205
-7.23949 -47.0957 80.8512 -0.505048 0.0624034 0.860824
-7.78879 -46.3136 80.4758 -0.504688 0.0473403 0.861926
-8.49496 -44.966 79.9668 -0.538318 0.0682904 0.839965
-8.83152 -44.0655 79.6749 -0.537116 0.0617948 0.841196
-9.36669 -42.8049 79.243 -0.550832 0.0559291 0.832739
-9.89732 -41.7914 78.8095 -0.562187 0.0747901 0.823562
-10.5285 -40.6291 78.2307 -0.577036 0.103687 0.810107
-10.8757 -39.0153 77.8038 -0.578506 0.0776292 0.811975
-10.6791 -37.7791 77.8143 -0.579859 0.120114 0.805813
-9.76897 -36.9593 78.2882 -0.507126 0.17746 0.843404
-8.49369 -36.7568 79.0079 -0.504152 0.174549 0.845791
-7.32062 -37.0528 79.7436 -0.472182 0.155238 0.867667
-6.34991 -37.316 80.3175 -0.417379 0.138061 0.896033
-5.41408 -37.5265 80.7144 -0.346221 0.13601 0.927947
-3.74522 -37.6678 81.2956 -0.309382 0.165641 0.936191
-3.72118 -37.6685 81.304 -0.317873 0.184248 0.930054
-3.75993 -36.9307 81.1733 -0.295179 0.150751 0.943466
-4.75847 -36.9005 80.8453 -0.317427 0.15922 0.934689
-6.101 -36.6333 80.3278 -0.34778 0.133983 0.927666
-7.47647 -36.2092 79.518 -0.469409 0.147592 0.870558
-8.89607 -35.94 78.6058 -0.506132 0.165062 0.846499
-9.83792 -36.1138 78.07 -0.509438 0.17409 0.842706
-10.8698 -36.8315 77.5373 -0.565445 0.111557 0.817026
-11.4324 -37.8624 77.2925 -0.597361 0.0731067 0.796202
-11.5416 -38.947 77.3239 -0.57749 0.0792052 0.812546
-11.4077 -40.0729 77.5341 -0.579576 0.100427 0.808706
-11.0892 -41.05 77.8848 -0.578902 0.10422 0.808709
-10.4328 -42.1958 78.4728 -0.581225 0.0733404 0.81043
-9.72644 -43.5312 79.0525 -0.551529 0.0548444 0.832351
-9.07956 -45.2994 79.6177 -0.583393 0.068051 0.809329
-8.61588 -46.2916 79.9912 -0.521301 0.0496693 0.851577
-8.07989 -47.0884 80.358 -0.505138 0.0585166 0.861052
-7.45501 -47.9978 80.7924 -0.513971 0.0836131 0.853366
-6.79546 -48.8071 81.1742 -0.39513 0.0810169 0.915046
-5.97394 -49.2644 81.5941 -0.450027 0.0250896 0.892633
-4.43046 -49.4036 82.3644 -0.417874 0.0434068 0.906693
-3.4581 -49.4082 82.6749 -0.293534 0.0674707 0.953561
-2.35432 -49.3835 82.9721 -0.151422 0.0388793 0.987501
-1.08378 -49.3546 83.1473 -0.137634 0.0530695 0.98906
-0.0576093 -49.3611 83.2675 -0.11187 0.0462125 0.992648
1.53402 -49.3924 83.2665 0.13064 0.0363875 0.990752
2.95997 -49.3982 83.0552 0.162042 0.0374278 0.986071
4.05943 -49.391 82.8721 0.178999 0.0239918 0.983367
5.14136 -49.3652 82.5097 0.343718 0.0884621 0.934897
6.20175 -49.2905 82.1083 0.380448 0.0677615 0.921346
7.11361 -49.0895 81.6624 0.435664 0.0323008 0.899526
7.93927 -48.7012 81.2454 0.46712 0.0587786 0.881227
8.69233 -48.1938 80.7439 0.540311 0.0698699 0.838558
9.5492 -47.4691 80.1427 0.531442 0.0320306 0.846489
10.7408 -46.2825 79.2874 0.59867 0.0523104 0.79897
11.2195 -45.2903 78.822 0.620029 0.0897204 0.779429
11.409 -44.1986 78.5492 0.617074 0.0911796 0.781585
11.3693 -42.9759 78.4689 0.591694 0.0388864 0.805224
11.0744 -42.0283 78.6395 0.577356 0.0567022 0.814163
10.2229 -40.8695 79.1141 0.557808 0.0684924 0.827101
9.56434 -40.0559 79.4988 0.563719 0.065644 0.823353
8.89965 -39.3388 79.8682 0.465481 0.162451 0.870021
8.10779 -38.7572 80.1825 0.451048 0.160117 0.877881
7.15932 -38.2072 80.5731 0.455672 0.13775 0.87941
6.07575 -37.6911 80.9742 0.366928 0.159558 0.915696
5.10102 -37.3947 81.216 0.277086 0.16664 0.946262
3.71555 -37.0909 81.5276 0.244302 0.19519 0.94984
2.45155 -36.9221 81.6764 0.0824515 0.206704 0.974708
1.45343 -36.8821 81.7387 0.0278072 0.216829 0.974902
0.233541 -36.9504 81.7362 -0.00890589 0.222466 0.974819
-0.903479 -37.0064 81.7078 -0.103309 0.210049 0.972187
-2.76936 -36.9744 81.4812 -0.124742 0.199107 0.971933
-2.84213 -36.9726 81.4632 -0.303909 0.168987 0.937312
-3.03674 -36.2629 81.2552 -0.212928 0.226993 0.948336
-2.02206 -36.3105 81.4166 -0.119463 0.229677 0.965907
-0.982337 -36.3089 81.5402 -0.116725 0.220538 0.968336
0.390463 -36.1905 81.5743 -0.0136264 0.211078 0.977374
1.97545 -36.1634 81.5365 0.0705637 0.222453 0.972386
3.25935 -36.2764 81.4713 0.135276 0.208713 0.965743
4.46119 -36.5083 81.2199 0.245474 0.17936 0.952663
5.5365 -36.757 80.9634 0.289904 0.180605 0.93986
6.53292 -37.0985 80.6886 0.366472 0.158627 0.916017
7.77825 -37.7481 80.1764 0.448037 0.131862 0.884122
8.65919 -38.2768 79.798 0.459138 0.138327 0.877117
9.44132 -38.8547 79.4874 0.514367 0.1139 0.846879
10.3267 -39.9396 78.9751 0.554323 0.0626366 0.829942
11.049 -40.7815 78.553 0.558101 0.0600987 0.827592
11.8993 -42.3171 78.0273 0.636204 0.0482079 0.770013
12.0416 -43.6524 77.9929 0.638484 0.0455464 0.768277
11.9295 -45.0521 78.2046 0.677486 0.066248 0.732546
11.6111 -46.1276 78.5962 0.680736 0.0416062 0.730919
11.0842 -46.9917 79.0525 0.605006 0.0291865 0.795672
10.0268 -48.007 79.8637 0.555763 0.0238081 0.830435
9.18219 -48.7124 80.4671 0.562482 0.0349084 0.826067
8.45469 -49.2656 80.9781 0.557914 0.0359119 0.829117
7.43561 -49.7848 81.5432 0.436628 0.0518645 0.898146
5.74067 -50.0584 82.3551 0.380448 0.0677615 0.921346
4.66278 -50.0923 82.7545 0.343718 0.0884621 0.934897
3.5696 -50.1113 82.9775 0.192901 0.00916574 0.981175
1.91765 -50.1264 83.2373 0.138599 0.0335127 0.989779
0.678699 -50.1143 83.3725 -0.00535925 -0.00656776 0.995118
-0.441517 -50.0879 83.258 -0.10872 0.0366909 0.993344
-1.53898 -50.0896 83.1239 -0.149588 0.0380865 0.987815
-2.81618 -50.1198 82.9128 -0.164859 0.0231734 0.986045
-3.89108 -50.1344 82.5926 -0.317494 0.0502875 0.946486
-4.86516 -50.1284 82.2038 -0.445162 0.0803804 0.891833
-5.78404 -50.0722 81.7422 -0.440135 0.0829773 0.894083
-6.72812 -49.8174 81.288 -0.395216 0.0626939 0.916446
-7.53057 -49.1719 80.8881 -0.453533 0.0542772 0.887682
-8.16056 -48.1734 80.3846 -0.520301 0.104924 0.847502
-8.73574 -47.3571 79.9912 -0.505432 0.058498 0.860881
-9.39653 -46.3838 79.4722 -0.558648 0.0643656 0.8268
-9.87886 -44.9673 79.0123 -0.588322 0.066236 0.805899
-10.2996 -43.7891 78.6615 -0.57167 0.0257033 0.82008
-10.9399 -42.5856 78.1171 -0.630582 0.0194482 0.775872
-11.609 -41.529 77.5219 -0.6624 0.0369281 0.748239
-12.1028 -39.8949 77.0002 -0.678567 0.0529679 0.732166
-12.1059 -38.2153 76.7602 -0.640633 0.112001 0.759634
-11.9202 -37.1918 76.8459 -0.645803 0.0500758 0.761835
-11.3492 -36.2614 77.1465 -0.555412 0.0946791 0.826147
-10.5811 -35.631 77.5898 -0.528495 0.0837615 0.844186
-9.67714 -35.2599 78.0785 -0.499285 0.0823628 0.862514
-8.78452 -35.1496 78.564 -0.490301 0.106046 0.865014
-7.59603 -35.3759 79.2852 -0.509022 0.136839 0.849287
-6.5742 -35.744 79.9156 -0.425347 0.186746 0.885536
-5.4376 -36.0624 80.4684 -0.329734 0.158883 0.930603
-4.33763 -36.2217 80.8596 -0.308657 0.17062 0.935742
-3.49401 -36.2336 81.1176 -0.268969 0.204224 0.941247
-3.29361 -35.5366 81.0221 -0.214727 0.23081 0.947247
-1.9958 -35.6188 81.2565 -0.13686 0.238177 0.961292
-0.91533 -35.5832 81.3879 -0.125782 0.218811 0.967609
0.388107 -35.4527 81.4141 -0.0140761 0.212472 0.977051
1.49039 -35.4068 81.403 0.0625622 0.20192 0.977401
2.96474 -35.519 81.3325 0.0624 0.203186 0.97715
4.05371 -35.6954 81.1677 0.212654 0.212909 0.953635
5.14742 -35.9208 80.9227 0.284498 0.185705 0.940488
6.22636 -36.2088 80.6434 0.313153 0.155592 0.936328
7.56492 -36.8417 80.1522 0.442573 0.119571 0.888687
8.48543 -37.3642 79.7709 0.452435 0.112277 0.884699
9.44232 -37.9591 79.3579 0.47994 0.11649 0.868927
10.3518 -38.8616 78.8761 0.559588 0.0700699 0.825791
10.942 -39.6445 78.542 0.555468 0.0610744 0.82929
11.7833 -40.5743 77.993 0.625599 0.0723624 0.776781
12.3655 -41.6577 77.5996 0.637675 0.0555473 0.7683
12.597 -42.7195 77.476 0.63853 0.0457857 0.768225
12.6405 -43.9391 77.5084 0.640652 0.0393239 0.766814
12.5533 -44.9417 77.6275 0.640494 0.0357364 0.767131
12.3175 -45.978 77.9298 0.680461 0.0427579 0.731147
11.907 -46.9611 78.3378 0.674008 0.0076173 0.738492
10.9722 -48.0916 79.1621 0.659745 0.0074402 0.751384
10.2849 -48.7028 79.6998 0.580873 0.0307185 0.813401
9.33982 -49.5251 80.3923 0.560691 0.0338458 0.827332
8.46171 -50.1163 81.0128 0.519709 0.0273889 0.852593
7.37033 -50.5856 81.6203 0.45878 0.0335752 0.887424
6.32271 -50.7452 82.1233 0.415453 0.0417855 0.908651
5.29657 -50.7858 82.5894 0.37702 0.066452 0.922787
4.12864 -50.8043 82.8738 0.1943 0.00903479 0.9809
2.76492 -50.8204 83.1414 0.178089 0.0233771 0.983526
1.49381 -50.8511 83.2743 0.0934319 -0.0342948 0.995034
0.485875 -50.8426 83.3679 -0.00221989 -0.00284228 0.995053
-0.59507 -50.8129 83.2615 -0.100652 0.0337643 0.994314
-1.99573 -50.8304 83.0757 -0.176191 0.0662325 0.982125
-3.12988 -50.8589 82.8774 -0.228276 0.0454868 0.970085
-4.35048 -50.8609 82.4506 -0.338449 0.0304757 0.940491
-5.32092 -50.847 82.041 -0.439452 0.0812443 0.894565
-6.26838 -50.7752 81.5726 -0.437782 0.0855603 0.895001
-7.25038 -50.4746 81.1062 -0.454826 0.0344947 0.887211
-8.00923 -49.7864 80.6371 -0.515237 0.0501277 0.855422
-8.61326 -48.8259 80.1857 -0.533769 0.0757526 0.841682
-9.32303 -47.7631 79.6402 -0.562943 0.0567556 0.824544
-10.1126 -46.4524 78.9478 -0.594441 0.0765489 0.800142
-10.4906 -45.087 78.5718 -0.593931 0.0628519 0.802043
-10.8795 -43.9456 78.2172 -0.63368 0.0332566 0.772878
-11.6678 -42.6552 77.5243 -0.646831 0.0280237 0.761824
-12.1649 -41.8563 77.0459 -0.662407 0.0368485 0.748237
-12.5147 -40.8513 76.6865 -0.677436 0.0477355 0.733654
-12.6945 -39.78 76.4156 -0.694679 0.0678688 0.716107
-12.711 -38.1715 76.2432 -0.665705 0.0920706 0.739554
-12.56 -37.1545 76.2964 -0.66058 0.0541665 0.748799
-12.1231 -36.1424 76.5955 -0.653601 0.0715079 0.753377
-11.2748 -35.1985 77.0788 -0.557438 0.0866987 0.825672
-10.4484 -34.7328 77.582 -0.525895 0.0859294 0.845592
-9.51174 -34.4334 78.0756 -0.481734 0.104515 0.870063
-8.59339 -34.3729 78.5767 -0.490659 0.106891 0.864703
-7.70688 -34.5339 79.1063 -0.462584 0.157463 0.87248
-6.50626 -34.9889 79.7876 -0.425065 0.166534 0.889407
-5.62343 -35.3253 80.2696 -0.364434 0.192496 0.910232
-4.28658 -35.5119 80.7358 -0.261807 0.205409 0.943008
-3.9784 -35.5077 80.8207 -0.265223 0.207152 0.941665
-3.83091 -34.7964 80.7069 -0.261074 0.209638 0.942269
-2.71044 -34.8876 80.9613 -0.176577 0.180043 0.967678
-1.54694 -34.9497 81.1603 -0.123365 0.204773 0.970947
-0.520963 -34.8178 81.2611 -0.0621356 0.215198 0.973483
0.988694 -34.6756 81.2569 -0.0158103 0.204504 0.978736
2.21005 -34.7017 81.2094 0.0743751 0.208948 0.975068
3.67689 -34.8994 81.0727 0.198518 0.221608 0.954627
4.65677 -35.0914 80.8943 0.214132 0.205424 0.954914
5.72747 -35.3037 80.624 0.294317 0.187827 0.937068
6.68129 -35.6041 80.3832 0.29206 0.184728 0.93838
7.89873 -36.1708 79.8956 0.436858 0.127535 0.890444
8.79795 -36.7343 79.5325 0.444111 0.118439 0.888054
9.64678 -37.2039 79.1293 0.505652 0.120983 0.854211
10.7256 -38.2119 78.5644 0.565938 0.0798851 0.820511
11.3828 -39.1191 78.1826 0.610533 0.0750245 0.788197
12.472 -40.2734 77.4099 0.6318 0.0649259 0.77233
13.0612 -41.9811 77.042 0.669261 0.0531265 0.741009
13.2218 -43.0953 76.975 0.640759 0.0432797 0.766521
13.1656 -44.8524 77.1122 0.642218 0.0365465 0.765646
12.9542 -45.8739 77.3303 0.689345 0.0125376 0.724305
12.6372 -46.8608 77.6536 0.687672 0.0151683 0.725862
12.0873 -47.884 78.1755 0.664423 0.00786761 0.747258
11.2866 -48.7507 78.902 0.66028 0.0164777 0.750835
10.6052 -49.3308 79.4631 0.622835 -0.0171113 0.782009
9.38909 -50.3923 80.394 0.575949 0.0250687 0.817096
8.00877 -51.1988 81.2797 0.499575 0.0254537 0.865592
6.91371 -51.4395 81.8908 0.437846 0.0519225 0.897199
5.93 -51.4789 82.342 0.409813 0.0576568 0.910344
4.8628 -51.4961 82.7541 0.246698 0.0197235 0.966942
3.66209 -51.5126 82.995 0.195155 0.0519554 0.979395
2.40207 -51.5286 83.2023 0.104623 0.0219923 0.993816
1.26364 -51.5674 83.2922 0.0772317 0.0347175 0.996408
0.234694 -51.5665 83.3639 -0.0328636 -0.00642796 0.997891
-1.03222 -51.5467 83.2489 -0.095632 0.0396493 0.994627
-2.44784 -51.577 83.0445 -0.185882 0.0474456 0.981246
-3.73562 -51.6092 82.7199 -0.342249 0.078023 0.936364
-4.8361 -51.5679 82.3148 -0.35719 0.0636249 0.931612
-5.80017 -51.5575 81.873 -0.436416 0.0748234 0.896627
-6.88784 -51.4617 81.3333 -0.46373 0.0479829 0.883845
-7.8831 -50.9715 80.7342 -0.511448 0.0155053 0.859174
-8.84752 -49.8339 80.0926 -0.570124 0.04681 0.81985
-9.34999 -48.9203 79.675 -0.584195 0.0322262 0.810847
-10.3144 -47.6106 78.9332 -0.587011 0.04353 0.808309
-10.7099 -46.6994 78.5039 -0.617083 0.0708987 0.782718
-10.9933 -45.7404 78.2224 -0.663023 0.0628039 0.745942
-11.2237 -44.7022 77.9457 -0.653477 0.0244987 0.756444
-11.8347 -43.5204 77.412 -0.654686 0.000463491 0.755865
-12.4354 -42.7243 76.8448 -0.670882 0.0265921 0.741086
-12.8659 -41.7621 76.4175 -0.68193 0.033152 0.73052
-13.134 -40.712 76.0788 -0.694614 0.0587515 0.716976
-13.2946 -39.4093 75.8006 -0.682153 0.0562975 0.728785
-13.2992 -38.0707 75.7061 -0.663257 0.0527603 0.746528
-12.8892 -36.1909 75.9352 -0.659099 0.0326615 0.751027
-12.2327 -35.1259 76.3823 -0.636709 0.0475646 0.768326
-11.4814 -34.4251 76.8645 -0.553908 0.0703198 0.8296
-10.3361 -33.9118 77.5603 -0.504047 0.0993483 0.857501
-9.30379 -33.5835 78.0961 -0.481939 0.0916553 0.871394
-8.3834 -33.6187 78.5883 -0.449166 0.142516 0.881927
-7.34913 -33.8599 79.1741 -0.461722 0.159051 0.872647
-6.1495 -34.3823 79.841 -0.393145 0.166545 0.904228
-5.1902 -34.7198 80.3057 -0.29946 0.195506 0.93323
-4.35725 -34.8036 80.5618 -0.261807 0.205409 0.943008
-3.95294 -34.0288 80.4993 -0.251505 0.216899 0.943208
-2.97301 -34.1185 80.7703 -0.203904 0.203213 0.956843
-1.30892 -34.1946 81.0335 -0.114088 0.198826 0.973371
0.387645 -33.9871 81.1015 -0.0138545 0.196921 0.98027
2.05204 -33.961 81.0624 0.0658578 0.195906 0.97835
3.26705 -34.018 80.9584 0.142096 0.211895 0.966263
4.36068 -34.2546 80.7873 0.225888 0.202748 0.952684
5.95909 -34.5664 80.4031 0.290972 0.18774 0.938126
6.89318 -34.8838 80.1784 0.354988 0.169523 0.916592
7.78563 -35.3262 79.8301 0.436764 0.12778 0.890455
8.60697 -35.8463 79.5013 0.447226 0.136642 0.883772
9.46561 -36.1579 79.0806 0.507225 0.13808 0.850672
10.7293 -37.0563 78.431 0.568953 0.110199 0.813831
11.3113 -37.8751 78.096 0.598614 0.0922241 0.795708
12.4368 -39.1694 77.3475 0.622173 0.0606422 0.780527
13.2149 -40.3603 76.7723 0.659129 0.0572227 0.74983
13.5224 -41.3858 76.5811 0.678472 0.0448586 0.733255
13.6784 -42.3895 76.4982 0.67811 0.0483732 0.733363
13.8025 -43.4214 76.4561 0.68613 0.0568886 0.725238
13.7494 -44.8869 76.5671 0.708455 0.0082476 0.705003
13.3168 -46.7285 77.0063 0.693029 0.0160873 0.72073
12.9678 -47.6244 77.3545 0.687275 0.0130374 0.726279
12.275 -48.7274 78.0294 0.65733 0.0239918 0.753196
11.4703 -49.5054 78.7538 0.646896 0.00221252 0.762241
10.3918 -50.4149 79.6707 0.626508 0.0498485 0.777817
9.65128 -51.0392 80.2313 0.573672 0.0262805 0.818657
8.4818 -51.8051 81.0389 0.525638 0.02324 0.849564
7.63329 -52.1013 81.5426 0.49747 0.0305483 0.866816
6.77773 -52.3062 82.007 0.44814 0.0580852 0.891962
5.84559 -52.3312 82.4367 0.353874 0.0264944 0.932261
4.75894 -52.3595 82.7754 0.298139 -0.0102474 0.954467
3.62478 -52.3908 83.049 0.163041 0.0315925 0.985362
2.42699 -52.3849 83.2078 0.131396 0.0104209 0.991275
1.18055 -52.3657 83.3266 0.045242 0.00784008 0.998034
0.0437814 -52.291 83.3472 0.0180687 -0.0250561 0.999519
-0.962418 -52.2918 83.2757 -0.085634 0.0190463 0.996137
-2.37326 -52.3015 83.083 -0.201314 0.0455958 0.978355
-3.64977 -52.508 82.8264 -0.273509 0.0580093 0.957183
-5.22229 -52.3566 82.2021 -0.373936 0.0502921 0.926089
-6.21005 -52.314 81.735 -0.4615 0.0495404 0.88504
-7.09038 -52.2088 81.2384 -0.503613 0.02431 0.863424
-7.94079 -51.848 80.7156 -0.511433 0.015516 0.859183
-9.17772 -50.9829 79.8898 -0.595416 0.00526335 0.803331
-9.56138 -49.9009 79.573 -0.590841 0.0432729 0.805626
-10.4397 -48.7056 78.885 -0.630501 0.0288956 0.77323
-10.9184 -47.8262 78.41 -0.673989 0.0267786 0.738243
-11.4097 -47.0357 77.933 -0.681922 0.0274991 0.730904
-11.5775 -45.891 77.7127 -0.670981 0.0587333 0.739096
-11.8998 -44.8355 77.3561 -0.678163 0.0416964 0.73362
-12.4174 -43.8879 76.8901 -0.670358 0.0050674 0.74202
-13.1432 -42.7802 76.204 -0.683519 0.0308206 0.729111
-13.5035 -41.811 75.8078 -0.69702 0.0369828 0.716088
-13.7111 -40.6338 75.5084 -0.695745 0.0660872 0.71524
-13.9015 -39.195 75.2329 -0.685293 0.0298981 0.727639
-13.8887 -38.1679 75.1891 -0.66288 0.0475607 0.747204
-13.5771 -36.238 75.3339 -0.661283 0.0528137 0.748269
-13.2136 -35.1145 75.6008 -0.612248 0.0366658 0.789164
-12.3241 -34.244 76.2591 -0.594339 0.0663858 0.801462
-11.4068 -33.3665 76.8224 -0.542404 0.0873667 0.835339
-10.4285 -33.0837 77.402 -0.527123 0.103648 0.843444
-9.48247 -32.8123 77.9175 -0.462901 0.111667 0.878684
-8.27968 -32.8277 78.5162 -0.438972 0.136494 0.888073
-7.29265 -33.1098 79.0747 -0.459085 0.146444 0.876239
-6.035 -33.5014 79.7274 -0.339123 0.173259 0.923582
-4.95668 -33.8672 80.1843 -0.296086 0.221538 0.928558
-4.55982 -33.8887 80.3029 -0.263256 0.208999 0.941788
-0.40841 -42.8812 82.6417 0.024656 0.111332 0.993476
0.0861084 -43.6173 82.7116 0.0253458 0.110405 0.993562
1.68601 -43.7034 82.6896 0.0147954 0.0959154 0.9951
2.75291 -43.6711 82.6619 0.127619 0.0778169 0.983254
3.5659 -43.2449 82.4472 0.222374 0.0578037 0.973243
3.66499 -42.9297 82.4055 0.203533 0.0876299 0.97444
2.28062 -42.9081 82.5917 0.0368379 0.143652 0.988184
1.55167 -42.7838 82.5851 0.0091147 0.114159 0.993421
0.74801 -42.7041 82.5897 0.0288515 0.112215 0.993265
0.136029 -42.8653 82.6258 0.027377 0.112573 0.993265
